# .PCD v0.7 - Point Cloud Data file format
VERSION 0.7
FIELDS x y z rgb
SIZE 4 4 4 4
TYPE F F F F
COUNT 1 1 1 1
WIDTH 1028
HEIGHT 1
VIEWPOINT 0 0 0 1 0 0 0
POINTS 1028
DATA ascii
0.2830224 0.12954096 0.70927584 1.0148749e-38
0.279751 0.12774757 0.69945645 9.9643559e-39
0.2803978 0.12774757 0.69945645 9.8714414e-39
0.28104466 0.12774757 0.69945645 9.8714414e-39
0.28169146 0.12774757 0.69945645 9.7792458e-39
0.28233829 0.12774757 0.69945645 9.7792458e-39
0.28575772 0.1289992 0.70630956 9.7792458e-39
0.2864109 0.1289992 0.70630956 9.8714414e-39
0.29294538 0.13164213 0.72078037 9.6866914e-39
0.29361194 0.13164213 0.72078037 1.0054754e-38
0.29199746 0.1300327 0.71196824 1.0239148e-38
0.29265589 0.1300327 0.71196824 1.0146952e-38
0.29331425 0.1300327 0.71196824 1.0146952e-38
0.29397267 0.1300327 0.71196824 1.0146952e-38
0.29463103 0.1300327 0.71196824 1.0055117e-38
0.28908399 0.12673494 0.69391197 9.8710855e-39
0.28972566 0.12673494 0.69391197 9.7788899e-39
0.29036736 0.12673494 0.69391197 1.0055117e-38
0.29100907 0.12673494 0.69391197 1.0056554e-38
0.29095587 0.12643297 0.6922586 9.7796087e-39
0.29159603 0.12643297 0.6922586 9.0431227e-39
0.29223618 0.12643297 0.6922586 8.9509271e-39
0.29287636 0.12643297 0.6922586 9.2271538e-39
0.29351652 0.12643297 0.6922586 9.5041008e-39
0.29978058 0.12885021 0.70549369 9.5962965e-39
0.25286826 0.13303511 0.73211426 1.0236604e-38
0.25163922 0.132035 0.72661048 1.3463096e-38
0.25231114 0.132035 0.72661048 1.1989044e-38
0.25298309 0.132035 0.72661048 1.1066732e-38
0.25185266 0.13109683 0.72144753 1.0145854e-38
0.25251985 0.13109683 0.72144753 9.6848796e-39
0.25318697 0.13109683 0.72144753 9.7777941e-39
0.25385416 0.13109683 0.72144753 9.7777969e-39
0.25452131 0.13109683 0.72144753 9.6866802e-39
0.23631597 0.11983507 0.65947223 9.4101003e-39
0.23692583 0.11983507 0.65947223 9.5948503e-39
0.23753566 0.11983507 0.65947223 9.779243e-39
0.23814552 0.11983507 0.65947223 9.5022988e-39
0.23875536 0.11983507 0.65947223 9.2267909e-39
0.23047607 0.11479987 0.63176268 9.5033792e-39
0.23106028 0.11479987 0.63176268 9.3189865e-39
0.23164451 0.11479987 0.63176268 9.1345953e-39
0.23222873 0.11479987 0.63176268 9.1345953e-39
0.23281296 0.11479987 0.63176268 9.2267909e-39
0.26834834 0.13035958 0.7173903 1.0239864e-38
0.26901171 0.13035958 0.7173903 1.0239864e-38
0.26967514 0.13035958 0.7173903 1.0055117e-38
0.27033854 0.13035958 0.7173903 1.0055117e-38
0.27100196 0.13035958 0.7173903 1.0147671e-38
0.27364472 0.13130938 0.72261721 9.8710855e-39
0.27431294 0.13130938 0.72261721 9.8710855e-39
0.26884115 0.12837738 0.70648193 9.964e-39
0.26949447 0.12837738 0.70648193 1.0148751e-38
0.2701478 0.12837738 0.70648193 1.0332783e-38
0.27080113 0.12837738 0.70648193 1.0332783e-38
0.267903 0.12669781 0.69723904 1.0424978e-38
0.26854777 0.12669781 0.69723904 1.0517177e-38
0.26919255 0.12669781 0.69723904 1.0332785e-38
0.26983732 0.12669781 0.69723904 1.0332785e-38
0.27048209 0.12669781 0.69723904 1.0609369e-38
0.26294404 0.12287397 0.6761958 1.0609369e-38
0.26356936 0.12287397 0.6761958 1.0148751e-38
0.26419467 0.12287397 0.6761958 9.964e-39
0.26481998 0.12287397 0.6761958 9.9643559e-39
0.26544529 0.12287397 0.6761958 9.9643559e-39
0.2712352 0.12525904 0.68932122 1.0148749e-38
0.27187267 0.12525904 0.68932122 1.0148749e-38
0.27251011 0.12525904 0.68932122 1.033278e-38
0.27314755 0.12525904 0.68932122 1.0425334e-38
0.273785 0.12525904 0.68932122 1.0148749e-38
0.27510935 0.12557256 0.6910466 1.0239864e-38
0.27296841 0.1243066 0.68407977 1.0148749e-38
0.27360103 0.1243066 0.68407977 1.033278e-38
0.27423361 0.1243066 0.68407977 9.9643559e-39
0.27486622 0.1243066 0.68407977 1.0055473e-38
0.27549884 0.1243066 0.68407977 9.6866914e-39
0.27699041 0.12469328 0.68620777 9.7792458e-39
0.27762496 0.12469328 0.68620777 1.0055473e-38
0.27825955 0.12469328 0.68620777 9.8714414e-39
0.28572816 0.12774877 0.70302266 1.0055473e-38
0.29425898 0.13126422 0.72236878 1.0054754e-38
0.29891863 0.13214289 0.72720414 1.0146952e-38
0.29959109 0.13214289 0.72720414 1.0146952e-38
0.30026358 0.13214289 0.72720414 1.0238792e-38
0.30093607 0.13214289 0.72720414 1.0239867e-38
0.30160856 0.13214289 0.72720414 1.0147671e-38
0.30495518 0.1333119 0.73363745 1.0055117e-38
0.30563363 0.1333119 0.73363745 9.6866942e-39
0.29292473 0.12692329 0.69847989 9.8718044e-39
0.29357067 0.12692329 0.69847989 9.4111849e-39
0.29421657 0.12692329 0.69847989 9.0431227e-39
0.29486251 0.12692329 0.69847989 9.2271538e-39
0.29109177 0.12502632 0.68804049 9.5962965e-39
0.29172805 0.12502632 0.68804049 9.7806877e-39
0.29236433 0.12502632 0.68804049 9.9647189e-39
0.29300058 0.12502632 0.68804049 9.8718044e-39
0.29363686 0.12502632 0.68804049 9.7796087e-39
0.30289936 0.1286913 0.70820951 9.9640028e-39
0.25286826 0.13235809 0.73211426 9.5912322e-39
0.25354528 0.13235809 0.73211426 1.3555647e-38
0.2542223 0.13235809 0.73211426 1.1804653e-38
0.25489932 0.13235809 0.73211426 1.0790504e-38
0.25279707 0.13091876 0.72415286 1.0053658e-38
0.25346676 0.13091876 0.72415286 9.6848796e-39
0.25413641 0.13091876 0.72415286 9.6855984e-39
0.25480607 0.13091876 0.72415286 9.6852425e-39
0.25547573 0.13091876 0.72415286 9.6866802e-39
0.23631597 0.11922522 0.65947223 9.4101003e-39
0.23692583 0.11922522 0.65947223 9.3189837e-39
0.23753566 0.11922522 0.65947223 9.6877662e-39
0.23814552 0.11922522 0.65947223 9.3189865e-39
0.23875536 0.11922522 0.65947223 9.1345953e-39
0.23047607 0.11421564 0.63176268 9.3189865e-39
0.23106028 0.11421564 0.63176268 9.3189865e-39
0.23164451 0.11421564 0.63176268 9.3189865e-39
0.23222873 0.11421564 0.63176268 9.4111821e-39
0.23281296 0.11421564 0.63176268 9.6874103e-39
0.26834834 0.12969616 0.7173903 1.0239864e-38
0.26901171 0.12969616 0.7173903 1.0147668e-38
0.26967514 0.12969616 0.7173903 1.0055117e-38
0.27033854 0.12969616 0.7173903 9.7788899e-39
0.27100196 0.12969616 0.7173903 9.8710855e-39
0.27364472 0.13064113 0.72261721 9.6874131e-39
0.27431294 0.13064113 0.72261721 9.7796087e-39
0.26884115 0.12772405 0.70648193 9.8718044e-39
0.26949447 0.12772405 0.70648193 9.8718044e-39
0.2701478 0.12772405 0.70648193 9.8718044e-39
0.27080113 0.12772405 0.70648193 9.964e-39
0.267903 0.12605304 0.69723904 1.0148751e-38
0.26854777 0.12605304 0.69723904 1.0148751e-38
0.26919255 0.12605304 0.69723904 1.014947e-38
0.26983732 0.12605304 0.69723904 1.0241666e-38
0.27048209 0.12605304 0.69723904 1.014947e-38
0.26294404 0.12224866 0.6761958 1.0057275e-38
0.26356936 0.12224866 0.6761958 9.9647189e-39
0.26419467 0.12224866 0.6761958 1.0056554e-38
0.26481998 0.12224866 0.6761958 1.0056552e-38
0.26544529 0.12224866 0.6761958 1.0148749e-38
0.2712352 0.12462159 0.68932122 1.0148749e-38
0.27187267 0.12462159 0.68932122 1.0425334e-38
0.27251011 0.12462159 0.68932122 1.051753e-38
0.27314755 0.12462159 0.68932122 1.0056552e-38
0.273785 0.12462159 0.68932122 9.9643559e-39
0.27510935 0.12493352 0.6910466 1.0239864e-38
0.27296841 0.12367399 0.68407977 9.9643559e-39
0.27360103 0.12367399 0.68407977 1.0056552e-38
0.27423361 0.12367399 0.68407977 9.9643559e-39
0.27486622 0.12367399 0.68407977 1.0055473e-38
0.27549884 0.12367399 0.68407977 9.8714414e-39
0.27699041 0.12405871 0.68620777 1.0055473e-38
0.27762496 0.12405871 0.68620777 1.0055473e-38
0.27825955 0.12405871 0.68620777 1.0055473e-38
0.28572816 0.12709865 0.70302266 1.0055473e-38
0.29425898 0.13059622 0.72236878 9.8714414e-39
0.29891863 0.1314704 0.72720414 9.8710855e-39
0.29959109 0.1314704 0.72720414 9.5944972e-39
0.30026358 0.1314704 0.72720414 9.6866942e-39
0.30093607 0.1314704 0.72720414 1.0055117e-38
0.30160856 0.1314704 0.72720414 9.8718044e-39
0.30495518 0.13263346 0.73363745 9.6874131e-39
0.30563363 0.13263346 0.73363745 9.503382e-39
0.29292473 0.12627737 0.69847989 9.9643559e-39
0.29357067 0.12627737 0.69847989 9.7799647e-39
0.29421657 0.12627737 0.69847989 9.4119024e-39
0.29486251 0.12627737 0.69847989 9.5962937e-39
0.29109177 0.12439004 0.68804049 9.7810437e-39
0.29172805 0.12439004 0.68804049 9.9650748e-39
0.29236433 0.12439004 0.68804049 1.0057272e-38
0.29300058 0.12439004 0.68804049 1.0056552e-38
0.29363686 0.12439004 0.68804049 9.9643559e-39
0.30289936 0.12803638 0.70820951 9.964e-39
0.25286826 0.13168107 0.73211426 9.6834278e-39
0.25354528 0.13168107 0.73211426 1.327942e-38
0.2542223 0.13168107 0.73211426 1.208124e-38
0.25489932 0.13168107 0.73211426 1.08827e-38
0.25279707 0.1302491 0.72415286 1.0238051e-38
0.25346676 0.1302491 0.72415286 1.0053302e-38
0.25413641 0.1302491 0.72415286 9.7777941e-39
0.25480607 0.1302491 0.72415286 9.6852425e-39
0.25547573 0.1302491 0.72415286 9.8707128e-39
0.23631597 0.11861537 0.65947223 9.3189865e-39
0.23692583 0.11861537 0.65947223 9.3189865e-39
0.23753566 0.11861537 0.65947223 9.5033792e-39
0.23814552 0.11861537 0.65947223 9.3189865e-39
0.23875536 0.11861537 0.65947223 9.2267909e-39
0.23047607 0.11363142 0.63176268 9.3189865e-39
0.23106028 0.11363142 0.63176268 9.4111821e-39
0.23164451 0.11363142 0.63176268 9.5033792e-39
0.23222873 0.11363142 0.63176268 9.6874103e-39
0.23281296 0.11363142 0.63176268 9.8714414e-39
0.26834834 0.12903276 0.7173903 1.0147668e-38
0.26901171 0.12903276 0.7173903 1.0147668e-38
0.26967514 0.12903276 0.7173903 1.0055117e-38
0.27033854 0.12903276 0.7173903 9.8710855e-39
0.27100196 0.12903276 0.7173903 1.0147671e-38
0.27364472 0.12997289 0.72261721 9.6874131e-39
0.27431294 0.12997289 0.72261721 9.4111849e-39
0.26884115 0.12707074 0.70648193 9.6874131e-39
0.26949447 0.12707074 0.70648193 9.8718044e-39
0.2701478 0.12707074 0.70648193 9.7796087e-39
0.27080113 0.12707074 0.70648193 9.7796087e-39
0.267903 0.12540826 0.69723904 9.8718044e-39
0.26854777 0.12540826 0.69723904 9.964e-39
0.26919255 0.12540826 0.69723904 9.9647189e-39
0.26983732 0.12540826 0.69723904 9.9647189e-39
0.27048209 0.12540826 0.69723904 9.7806877e-39
0.26294404 0.12162334 0.6761958 9.7806877e-39
0.26356936 0.12162334 0.6761958 9.7806877e-39
0.26419467 0.12162334 0.6761958 1.0056554e-38
0.26481998 0.12162334 0.6761958 1.0148749e-38
0.26544529 0.12162334 0.6761958 1.0056552e-38
0.2712352 0.12398414 0.68932122 1.0056552e-38
0.27187267 0.12398414 0.68932122 1.0425334e-38
0.27251011 0.12398414 0.68932122 1.0425334e-38
0.27314755 0.12398414 0.68932122 1.0239864e-38
0.273785 0.12398414 0.68932122 1.0239864e-38
0.27510935 0.12429447 0.6910466 1.0332061e-38
0.27296841 0.12304138 0.68407977 1.0147668e-38
0.27360103 0.12304138 0.68407977 1.0239864e-38
0.27423361 0.12304138 0.68407977 1.0239864e-38
0.27486622 0.12304138 0.68407977 9.8714414e-39
0.27549884 0.12304138 0.68407977 9.7792458e-39
0.27699041 0.12342414 0.68620777 1.0055473e-38
0.27762496 0.12342414 0.68620777 1.0147668e-38
0.27825955 0.12342414 0.68620777 1.0239864e-38
0.28572816 0.12644853 0.70302266 1.0239864e-38
0.29425898 0.1299282 0.72236878 1.0147668e-38
0.29891863 0.13079791 0.72720414 9.8710855e-39
0.29959109 0.13079791 0.72720414 9.7788899e-39
0.30026358 0.13079791 0.72720414 9.7788899e-39
0.30093607 0.13079791 0.72720414 9.7796087e-39
0.30160856 0.13079791 0.72720414 9.7796087e-39
0.30495518 0.13195504 0.73363745 9.6874131e-39
0.30563363 0.13195504 0.73363745 9.6874131e-39
0.29292473 0.12563145 0.69847989 9.8721603e-39
0.29357067 0.12563145 0.69847989 9.7799647e-39
0.29421657 0.12563145 0.69847989 9.5962937e-39
0.29486251 0.12563145 0.69847989 9.688848e-39
0.29109177 0.12375378 0.68804049 9.7810437e-39
0.29172805 0.12375378 0.68804049 9.7810437e-39
0.29236433 0.12375378 0.68804049 9.9650748e-39
0.29300058 0.12375378 0.68804049 1.0056552e-38
0.29363686 0.12375378 0.68804049 9.9643559e-39
0.30289936 0.12738146 0.70820951 1.0056552e-38
0.25049785 0.129776 0.72525138 1.0144406e-38
0.25116855 0.129776 0.72525138 1.3647843e-38
0.25183922 0.129776 0.72525138 1.2173436e-38
0.25465423 0.13087808 0.73141026 1.1251482e-38
0.25415543 0.1302757 0.72804391 1.0422442e-38
0.25482869 0.1302757 0.72804391 1.0145858e-38
0.25550193 0.1302757 0.72804391 9.8699925e-39
0.25617522 0.1302757 0.72804391 9.8699925e-39
0.25684845 0.1302757 0.72804391 9.9629112e-39
0.25733683 0.12279823 0.68625617 1.0332061e-38
0.25797147 0.12279823 0.68625617 1.0239145e-38
0.25860608 0.12279823 0.68625617 9.8714414e-39
0.26663646 0.12477427 0.69729924 9.503382e-39
0.26728129 0.12477427 0.69729924 9.6874131e-39
0.26792613 0.12477427 0.69729924 9.7806877e-39
0.26857096 0.12477427 0.69729924 1.0057275e-38
0.26136273 0.12113459 0.67695898 9.7806877e-39
0.26198876 0.12113459 0.67695898 9.5962965e-39
0.26261479 0.12113459 0.67695898 9.6884921e-39
0.26324081 0.12113459 0.67695898 9.7806877e-39
0.26386681 0.12113459 0.67695898 9.9647189e-39
0.26580513 0.1217356 0.6803177 1.0148751e-38
0.26643422 0.1217356 0.6803177 1.0148749e-38
0.26706338 0.1217356 0.6803177 1.0056552e-38
0.27211094 0.12374493 0.6915468 1.033278e-38
0.27275044 0.12374493 0.6915468 1.0148749e-38
0.2740818 0.12405808 0.69329685 1.0148749e-38
0.27472293 0.12405808 0.69329685 1.0516811e-38
0.27863047 0.12552968 0.70152086 1.0424615e-38
0.27793929 0.12492742 0.69815511 1.0239864e-38
0.2785849 0.12492742 0.69815511 1.0147668e-38
0.27923054 0.12492742 0.69815511 1.0424615e-38
0.27987614 0.12492742 0.69815511 1.0332061e-38
0.28052175 0.12492742 0.69815511 9.7792458e-39
0.28253981 0.12553722 0.70156294 9.6866914e-39
0.28318858 0.12553722 0.70156294 1.0055473e-38
0.28606033 0.12652041 0.70705754 1.0147668e-38
0.2867142 0.12652041 0.70705754 1.0332061e-38
0.291078 0.1281538 0.71618575 1.0239864e-38
0.29174033 0.1281538 0.71618575 9.7792458e-39
0.28880483 0.12572269 0.70259947 9.5944972e-39
0.28945455 0.12572269 0.70259947 9.4111849e-39
0.29010427 0.12572269 0.70259947 9.503382e-39
0.29075399 0.12572269 0.70259947 9.6874131e-39
0.29140374 0.12572269 0.70259947 9.6874131e-39
0.2923831 0.1258646 0.70339251 9.7796087e-39
0.29303357 0.1258646 0.70339251 9.8718044e-39
0.29368404 0.1258646 0.70339251 9.8721603e-39
0.2943345 0.1258646 0.70339251 9.7799647e-39
0.29498497 0.1258646 0.70339251 9.5033792e-39
0.28515643 0.1211367 0.67697078 9.5966496e-39
0.28578246 0.1211367 0.67697078 9.5966496e-39
0.28640848 0.1211367 0.67697078 9.6888452e-39
0.28703451 0.1211367 0.67697078 9.6888452e-39
0.28766054 0.1211367 0.67697078 9.6888452e-39
0.29415774 0.12360375 0.69075781 9.7799619e-39
0.29479653 0.12360375 0.69075781 9.6877662e-39
0.30317941 0.12684372 0.70886433 1.0056552e-38
0.30393448 0.12688527 0.70909655 1.033278e-38
0.30459023 0.12688527 0.70909655 1.0425334e-38
0.25049785 0.12910533 0.72525138 1.1158918e-38
0.25116855 0.12910533 0.72525138 1.4385409e-38
0.25183922 0.12910533 0.72525138 1.3464175e-38
0.25465423 0.1302017 0.73141026 1.1251482e-38
0.25415543 0.12960245 0.72804391 1.0238053e-38
0.25482869 0.12960245 0.72804391 9.8692736e-39
0.25550193 0.12960245 0.72804391 9.8699925e-39
0.25617522 0.12960245 0.72804391 9.8696366e-39
0.25684845 0.12960245 0.72804391 9.9629112e-39
0.25733683 0.12216361 0.68625617 1.0515729e-38
0.25797147 0.12216361 0.68625617 1.0330262e-38
0.25860608 0.12216361 0.68625617 1.0054754e-38
0.26663646 0.12412944 0.69729924 9.503382e-39
0.26728129 0.12412944 0.69729924 9.7796087e-39
0.26792613 0.12412944 0.69729924 9.7806877e-39
0.26857096 0.12412944 0.69729924 9.9647189e-39
0.26136273 0.12050857 0.67695898 9.7806877e-39
0.26198876 0.12050857 0.67695898 9.5962965e-39
0.26261479 0.12050857 0.67695898 9.6884921e-39
0.26324081 0.12050857 0.67695898 1.0056554e-38
0.26386681 0.12050857 0.67695898 1.0148751e-38
0.26580513 0.12110648 0.6803177 1.0148751e-38
0.26643422 0.12110648 0.6803177 1.0056554e-38
0.26706338 0.12110648 0.6803177 1.0056554e-38
0.27211094 0.12310542 0.6915468 1.0332783e-38
0.27275044 0.12310542 0.6915468 1.0147671e-38
0.2740818 0.12341695 0.69329685 1.0055117e-38
0.27472293 0.12341695 0.69329685 1.0332064e-38
0.27863047 0.12488095 0.70152086 1.0239867e-38
0.27793929 0.12428179 0.69815511 1.0055117e-38
0.2785849 0.12428179 0.69815511 9.8710855e-39
0.27923054 0.12428179 0.69815511 1.0332064e-38
0.27987614 0.12428179 0.69815511 1.0239867e-38
0.28052175 0.12428179 0.69815511 9.6866942e-39
0.28253981 0.12488844 0.70156294 9.6866942e-39
0.28318858 0.12488844 0.70156294 1.0055117e-38
0.28606033 0.12586656 0.70705754 1.0055117e-38
0.2867142 0.12586656 0.70705754 1.0147671e-38
0.291078 0.12749152 0.71618575 9.8710855e-39
0.29174033 0.12749152 0.71618575 9.5023016e-39
0.28880483 0.12507296 0.70259947 9.5023016e-39
0.28945455 0.12507296 0.70259947 9.4111849e-39
0.29010427 0.12507296 0.70259947 9.4111849e-39
0.29075399 0.12507296 0.70259947 9.4111849e-39
0.29140374 0.12507296 0.70259947 9.6874131e-39
0.2923831 0.12521413 0.70339251 9.8718044e-39
0.29303357 0.12521413 0.70339251 9.964e-39
0.29368404 0.12521413 0.70339251 9.8721603e-39
0.2943345 0.12521413 0.70339251 9.6874103e-39
0.29498497 0.12521413 0.70339251 9.6874103e-39
0.28515643 0.12051068 0.67697078 9.5966496e-39
0.28578246 0.12051068 0.67697078 9.5966496e-39
0.28640848 0.12051068 0.67697078 9.7810409e-39
0.28703451 0.12051068 0.67697078 9.7810409e-39
0.28766054 0.12051068 0.67697078 9.6888452e-39
0.29415774 0.12296497 0.69075781 9.6877662e-39
0.29479653 0.12296497 0.69075781 9.6877662e-39
0.30317941 0.12618819 0.70886433 1.0056552e-38
0.30393448 0.12622954 0.70909655 1.0425334e-38
0.30459023 0.12622954 0.70909655 1.0056552e-38
0.25049785 0.12843464 0.72525138 1.0513549e-38
0.25116855 0.12843464 0.72525138 1.41099e-38
0.25183922 0.12843464 0.72525138 1.355673e-38
0.25465423 0.12952533 0.73141026 1.1160366e-38
0.25415543 0.12892918 0.72804391 1.0145858e-38
0.25482869 0.12892918 0.72804391 9.7777969e-39
0.25550193 0.12892918 0.72804391 9.7777969e-39
0.25617522 0.12892918 0.72804391 9.6852453e-39
0.25684845 0.12892918 0.72804391 9.5941287e-39
0.25733683 0.121529 0.68625617 1.0515729e-38
0.25797147 0.121529 0.68625617 1.0330618e-38
0.25860608 0.121529 0.68625617 1.0146947e-38
0.26663646 0.12348461 0.69729924 1.0147671e-38
0.26728129 0.12348461 0.69729924 9.8718044e-39
0.26792613 0.12348461 0.69729924 9.8718044e-39
0.26857096 0.12348461 0.69729924 9.7806877e-39
0.26136273 0.11988255 0.67695898 9.9647189e-39
0.26198876 0.11988255 0.67695898 1.0057275e-38
0.26261479 0.11988255 0.67695898 9.7806877e-39
0.26324081 0.11988255 0.67695898 9.964e-39
0.26386681 0.11988255 0.67695898 9.964e-39
0.26580513 0.12047736 0.6803177 1.0056554e-38
0.26643422 0.12047736 0.6803177 9.964e-39
0.26706338 0.12047736 0.6803177 9.964e-39
0.27211094 0.12246591 0.6915468 9.7796087e-39
0.27275044 0.12246591 0.6915468 9.7788899e-39
0.2740818 0.12277583 0.69329685 9.8710855e-39
0.27472293 0.12277583 0.69329685 9.7788899e-39
0.27863047 0.12423222 0.70152086 1.0055117e-38
0.27793929 0.12363618 0.69815511 1.0147671e-38
0.2785849 0.12363618 0.69815511 9.8710855e-39
0.27923054 0.12363618 0.69815511 1.0055117e-38
0.27987614 0.12363618 0.69815511 1.0055117e-38
0.28052175 0.12363618 0.69815511 9.7788899e-39
0.28253981 0.12423967 0.70156294 9.6866942e-39
0.28318858 0.12423967 0.70156294 9.7788899e-39
0.28606033 0.1252127 0.70705754 9.7788899e-39
0.2867142 0.1252127 0.70705754 9.7788899e-39
0.291078 0.12682922 0.71618575 9.6866942e-39
0.29174033 0.12682922 0.71618575 9.5944972e-39
0.28880483 0.12442323 0.70259947 9.8710855e-39
0.28945455 0.12442323 0.70259947 9.7796087e-39
0.29010427 0.12442323 0.70259947 9.503382e-39
0.29075399 0.12442323 0.70259947 9.4111849e-39
0.29140374 0.12442323 0.70259947 9.6874131e-39
0.2923831 0.12456366 0.70339251 9.8718044e-39
0.29303357 0.12456366 0.70339251 9.8718044e-39
0.29368404 0.12456366 0.70339251 9.7799647e-39
0.2943345 0.12456366 0.70339251 9.6874103e-39
0.29498497 0.12456366 0.70339251 9.7799647e-39
0.28515643 0.11988465 0.67697078 9.5966496e-39
0.28578246 0.11988465 0.67697078 9.5966496e-39
0.28640848 0.11988465 0.67697078 9.6888452e-39
0.28703451 0.11988465 0.67697078 9.6888452e-39
0.28766054 0.11988465 0.67697078 9.6888452e-39
0.29415774 0.12232619 0.69075781 9.7810409e-39
0.29479653 0.12232619 0.69075781 9.7810409e-39
0.30317941 0.12553267 0.70886433 1.0148749e-38
0.30393448 0.1255738 0.70909655 1.033278e-38
0.30459023 0.1255738 0.70909655 9.8721603e-39
0.25396582 0.12953277 0.73529196 9.5923112e-39
0.25464579 0.12953277 0.73529196 1.4017704e-38
0.25532573 0.12953277 0.73529196 1.3649645e-38
0.2560057 0.12953277 0.73529196 1.1067811e-38
0.25668567 0.12953277 0.73529196 9.9621867e-39
0.25156865 0.12661514 0.71873003 9.7777969e-39
0.2522333 0.12661514 0.71873003 9.7777969e-39
0.25289795 0.12661514 0.71873003 9.6852453e-39
0.2535626 0.12661514 0.71873003 9.5941287e-39
0.25422725 0.12661514 0.71873003 9.5015771e-39
0.23875217 0.11299948 0.64144081 1.0238419e-38
0.23934534 0.11299948 0.64144081 1.0330615e-38
0.23993851 0.11299948 0.64144081 1.0607562e-38
0.24053168 0.11299948 0.64144081 1.0699757e-38
0.24112487 0.11299948 0.64144081 1.0515009e-38
0.25259814 0.11808576 0.67031306 1.0422813e-38
0.25321802 0.11808576 0.67031306 1.0422457e-38
0.26562092 0.12356724 0.70142865 1.0422457e-38
0.26626956 0.12356724 0.70142865 1.0330262e-38
0.26691821 0.12356724 0.70142865 1.0054754e-38
0.26756686 0.12356724 0.70142865 1.0054756e-38
0.26332054 0.12131213 0.68862754 9.8710855e-39
0.26395735 0.12131213 0.68862754 1.0055117e-38
0.26459417 0.12131213 0.68862754 9.8718044e-39
0.26523098 0.12131213 0.68862754 9.8718044e-39
0.26586777 0.12131213 0.68862754 1.0148751e-38
0.27011442 0.12295531 0.69795501 1.0332783e-38
0.2672309 0.12135277 0.68885821 1.0056554e-38
0.26786792 0.12135277 0.68885821 9.8718044e-39
0.26850492 0.12135277 0.68885821 9.7796087e-39
0.26914197 0.12135277 0.68885821 9.8710855e-39
0.26977897 0.12135277 0.68885821 1.0055117e-38
0.27300325 0.12251383 0.69544899 9.8710855e-39
0.27364638 0.12251383 0.69544899 9.6866942e-39
0.27505964 0.12285782 0.69740164 9.5944972e-39
0.27570456 0.12285782 0.69740164 9.6866942e-39
0.27197939 0.12091499 0.68637317 9.6866942e-39
0.27261409 0.12091499 0.68637317 9.7788899e-39
0.27324882 0.12091499 0.68637317 1.0055117e-38
0.27388355 0.12091499 0.68637317 1.0055117e-38
0.27451828 0.12091499 0.68637317 9.8710855e-39
0.28674331 0.1260083 0.71528536 1.0055117e-38
0.28530249 0.12508659 0.71005327 9.8710855e-39
0.28595909 0.12508659 0.71005327 9.5944972e-39
0.28661573 0.12508659 0.71005327 9.5944972e-39
0.28727236 0.12508659 0.71005327 9.6866942e-39
0.28431556 0.1235168 0.70114231 9.6866942e-39
0.28496394 0.1235168 0.70114231 9.7788899e-39
0.28561231 0.1235168 0.70114231 9.5023016e-39
0.28626069 0.1235168 0.70114231 9.5944972e-39
0.2869091 0.1235168 0.70114231 9.5944972e-39
0.28750154 0.12130465 0.68858504 9.6874103e-39
0.28813833 0.12130465 0.68858504 9.6874103e-39
0.28877509 0.12130465 0.68858504 9.7799647e-39
0.28941187 0.12130465 0.68858504 9.8721603e-39
0.29004863 0.12130465 0.68858504 9.5966496e-39
0.2956771 0.12338771 0.70040953 9.5966496e-39
0.29632479 0.12338771 0.70040953 9.6888452e-39
0.29775286 0.12371194 0.70225 9.5962937e-39
0.29840225 0.12371194 0.70225 9.688848e-39
0.30237019 0.12508474 0.71004272 9.9650748e-39
0.29943967 0.12360404 0.70163751 1.0149467e-38
0.30008852 0.12360404 0.70163751 1.033278e-38
0.30073735 0.12360404 0.70163751 1.0056552e-38
0.30138621 0.12360404 0.70163751 9.9643559e-39
0.30203503 0.12360404 0.70163751 1.0148749e-38
0.28600883 0.11580167 0.65734744 1.014947e-38
0.28661671 0.11580167 0.65734744 1.014947e-38
0.28722462 0.11580167 0.65734744 1.0149114e-38
0.2878325 0.11580167 0.65734744 1.0149114e-38
0.28844038 0.11580167 0.65734744 1.0056919e-38
0.25396582 0.12885281 0.73529196 9.7763437e-39
0.25464579 0.12885281 0.73529196 1.3925869e-38
0.25532573 0.12885281 0.73529196 1.3464895e-38
0.2560057 0.12885281 0.73529196 1.0700108e-38
0.25668567 0.12885281 0.73529196 9.7777941e-39
0.25156865 0.1259505 0.71873003 9.5019302e-39
0.2522333 0.1259505 0.71873003 9.5019302e-39
0.25289795 0.1259505 0.71873003 9.501933e-39
0.2535626 0.1259505 0.71873003 9.5941287e-39
0.25422725 0.1259505 0.71873003 9.2260692e-39
0.23875217 0.11240631 0.64144081 1.0700473e-38
0.23934534 0.11240631 0.64144081 9.8707128e-39
0.23993851 0.11240631 0.64144081 1.0330615e-38
0.24053168 0.11240631 0.64144081 1.042281e-38
0.24112487 0.11240631 0.64144081 1.042281e-38
0.25259814 0.11746588 0.67031306 1.0330615e-38
0.25321802 0.11746588 0.67031306 1.0422094e-38
0.26562092 0.12291859 0.70142865 1.0330618e-38
0.26626956 0.12291859 0.70142865 1.0146947e-38
0.26691821 0.12291859 0.70142865 1.0054754e-38
0.26756686 0.12291859 0.70142865 1.0146952e-38
0.26332054 0.12067533 0.68862754 1.0055473e-38
0.26395735 0.12067533 0.68862754 1.0055473e-38
0.26459417 0.12067533 0.68862754 9.7796087e-39
0.26523098 0.12067533 0.68862754 9.7806905e-39
0.26586777 0.12067533 0.68862754 9.7806877e-39
0.27011442 0.12230987 0.69795501 9.7806877e-39
0.2672309 0.12071574 0.68885821 9.9650748e-39
0.26786792 0.12071574 0.68885821 9.9643559e-39
0.26850492 0.12071574 0.68885821 9.6874131e-39
0.26914197 0.12071574 0.68885821 9.7788899e-39
0.26977897 0.12071574 0.68885821 9.8710855e-39
0.27300325 0.12187072 0.69544899 1.0055117e-38
0.27364638 0.12187072 0.69544899 1.0055117e-38
0.27505964 0.1222129 0.69740164 9.5944972e-39
0.27570456 0.1222129 0.69740164 9.5023016e-39
0.27197939 0.12028027 0.68637317 9.7788899e-39
0.27261409 0.12028027 0.68637317 9.6866942e-39
0.27324882 0.12028027 0.68637317 9.5023016e-39
0.27388355 0.12028027 0.68637317 9.7792458e-39
0.27451828 0.12028027 0.68637317 9.8714414e-39
0.28674331 0.12534685 0.71528536 9.8714414e-39
0.28530249 0.12442997 0.71005327 9.8714414e-39
0.28595909 0.12442997 0.71005327 9.5944944e-39
0.28661573 0.12442997 0.71005327 9.5023016e-39
0.28727236 0.12442997 0.71005327 9.6866942e-39
0.28431556 0.12286842 0.70114231 9.5944972e-39
0.28496394 0.12286842 0.70114231 9.7788899e-39
0.28561231 0.12286842 0.70114231 9.7788899e-39
0.28626069 0.12286842 0.70114231 9.8710855e-39
0.2869091 0.12286842 0.70114231 9.6866942e-39
0.28750154 0.12066787 0.68858504 9.7799647e-39
0.28813833 0.12066787 0.68858504 9.6874103e-39
0.28877509 0.12066787 0.68858504 9.6874103e-39
0.28941187 0.12066787 0.68858504 9.7799647e-39
0.29004863 0.12066787 0.68858504 9.504454e-39
0.2956771 0.12274 0.70040953 9.7810409e-39
0.29632479 0.12274 0.70040953 9.7810409e-39
0.29775286 0.12306253 0.70225 9.5962937e-39
0.29840225 0.12306253 0.70225 9.5962937e-39
0.30237019 0.12442812 0.71004272 9.7810437e-39
0.29943967 0.1229552 0.70163751 1.0149467e-38
0.30008852 0.1229552 0.70163751 1.0148749e-38
0.30073735 0.1229552 0.70163751 9.8721603e-39
0.30138621 0.1229552 0.70163751 9.8721603e-39
0.30203503 0.1229552 0.70163751 1.033278e-38
0.28600883 0.11519378 0.65734744 1.0057275e-38
0.28661671 0.11519378 0.65734744 9.7806877e-39
0.28722462 0.11519378 0.65734744 1.0057275e-38
0.2878325 0.11519378 0.65734744 1.0057275e-38
0.28844038 0.11519378 0.65734744 1.0056919e-38
0.25396582 0.12817284 0.73529196 1.1436943e-38
0.25464579 0.12817284 0.73529196 1.3925869e-38
0.25532573 0.12817284 0.73529196 1.3189385e-38
0.2560057 0.12817284 0.73529196 1.0330968e-38
0.25668567 0.12817284 0.73529196 9.5022862e-39
0.25156865 0.12528585 0.71873003 9.5941259e-39
0.2522333 0.12528585 0.71873003 9.6866802e-39
0.25289795 0.12528585 0.71873003 9.9629112e-39
0.2535626 0.12528585 0.71873003 9.7792402e-39
0.25422725 0.12528585 0.71873003 9.502296e-39
0.23875217 0.11181313 0.64144081 1.4020235e-38
0.23934534 0.11181313 0.64144081 1.2268158e-38
0.23993851 0.11181313 0.64144081 1.1067461e-38
0.24053168 0.11181313 0.64144081 1.0053308e-38
0.24112487 0.11181313 0.64144081 9.4079381e-39
0.25259814 0.11684602 0.67031306 1.0145505e-38
0.25321802 0.11684602 0.67031306 1.0421012e-38
0.26562092 0.12226994 0.70142865 1.0238419e-38
0.26626956 0.12226994 0.70142865 9.9625553e-39
0.26691821 0.12226994 0.70142865 9.8703624e-39
0.26756686 0.12226994 0.70142865 1.0238069e-38
0.26332054 0.12003852 0.68862754 9.6859712e-39
0.26395735 0.12003852 0.68862754 9.8714414e-39
0.26459417 0.12003852 0.68862754 9.7796087e-39
0.26523098 0.12003852 0.68862754 9.5959433e-39
0.26586777 0.12003852 0.68862754 9.5962993e-39
0.27011442 0.12166443 0.69795501 9.5962965e-39
0.2672309 0.12007872 0.68885821 9.688848e-39
0.26786792 0.12007872 0.68885821 9.9643559e-39
0.26850492 0.12007872 0.68885821 1.0056554e-38
0.26914197 0.12007872 0.68885821 1.0147315e-38
0.26977897 0.12007872 0.68885821 1.0055119e-38
0.27300325 0.1212276 0.69544899 1.0055119e-38
0.27364638 0.1212276 0.69544899 9.7788899e-39
0.27505964 0.12156798 0.69740164 9.8710855e-39
0.27570456 0.12156798 0.69740164 9.7788899e-39
0.27197939 0.11964554 0.68637317 9.6866942e-39
0.27261409 0.11964554 0.68637317 9.7788899e-39
0.27324882 0.11964554 0.68637317 9.6866942e-39
0.27388355 0.11964554 0.68637317 9.6866914e-39
0.27451828 0.11964554 0.68637317 1.0054754e-38
0.28674331 0.12468538 0.71528536 1.0146949e-38
0.28530249 0.12377335 0.71005327 1.0054754e-38
0.28595909 0.12377335 0.71005327 9.5944944e-39
0.28661573 0.12377335 0.71005327 9.4101059e-39
0.28727236 0.12377335 0.71005327 9.5023016e-39
0.28431556 0.12222003 0.70114231 9.6866942e-39
0.28496394 0.12222003 0.70114231 9.8710855e-39
0.28561231 0.12222003 0.70114231 1.0055117e-38
0.28626069 0.12222003 0.70114231 9.8710855e-39
0.2869091 0.12222003 0.70114231 9.7788899e-39
0.28750154 0.1200311 0.68858504 1.0056552e-38
0.28813833 0.1200311 0.68858504 9.9643559e-39
0.28877509 0.1200311 0.68858504 1.0056552e-38
0.28941187 0.1200311 0.68858504 1.0148749e-38
0.29004863 0.1200311 0.68858504 9.9643559e-39
0.2956771 0.1220923 0.70040953 9.7799647e-39
0.29632479 0.1220923 0.70040953 9.7799647e-39
0.29775286 0.12241312 0.70225 9.7799647e-39
0.29840225 0.12241312 0.70225 9.8721603e-39
0.30237019 0.12377151 0.71004272 9.8721603e-39
0.29943967 0.12230635 0.70163751 9.9643559e-39
0.30008852 0.12230635 0.70163751 9.9643559e-39
0.30073735 0.12230635 0.70163751 9.8721603e-39
0.30138621 0.12230635 0.70163751 1.0147671e-38
0.30203503 0.12230635 0.70163751 1.0239867e-38
0.28600883 0.11458591 0.65734744 9.8718044e-39
0.28661671 0.11458591 0.65734744 9.964e-39
0.28082949 0.11203463 0.64271146 1.0148751e-38
0.28142384 0.11203463 0.64271146 1.0056554e-38
0.28201818 0.11203463 0.64271146 1.0148395e-38
0.28261253 0.11203463 0.64271146 1.0332785e-38
0.28320688 0.11203463 0.64271146 1.0332785e-38
0.28631082 0.11302532 0.64839482 1.0332785e-38
0.28691044 0.11302532 0.64839482 1.0332785e-38
0.25146094 0.12623543 0.72803974 1.1436943e-38
0.2521342 0.12623543 0.72803974 1.3649642e-38
0.25280744 0.12623543 0.72803974 1.1806451e-38
0.25635758 0.12766811 0.73630255 1.0238772e-38
0.25703844 0.12766811 0.73630255 9.5022862e-39
0.24793246 0.12249628 0.70647496 9.6863243e-39
0.24858579 0.12249628 0.70647496 1.0055107e-38
0.24923909 0.12249628 0.70647496 9.8717946e-39
0.24989241 0.12249628 0.70647496 9.6870474e-39
0.25054571 0.12249628 0.70647496 9.4101003e-39
0.25555584 0.11934426 0.68829626 1.5494646e-38
0.26207191 0.12058523 0.69545335 9.7767221e-39
0.26271504 0.12058523 0.69545335 9.5916119e-39
0.26377171 0.1207746 0.69654548 9.5923308e-39
0.26300424 0.12012984 0.69282693 1.0330618e-38
0.26364493 0.12012984 0.69282693 1.0054035e-38
0.26428565 0.12012984 0.69282693 9.8685674e-39
0.26443115 0.1199053 0.69153196 1.0238066e-38
0.26507065 0.1199053 0.69153196 9.8703624e-39
0.26571015 0.1199053 0.69153196 1.0055117e-38
0.26634964 0.1199053 0.69153196 9.8718072e-39
0.26698914 0.1199053 0.69153196 9.8718044e-39
0.27015457 0.121037 0.69805878 9.7799647e-39
0.27080008 0.121037 0.69805878 1.0056552e-38
0.27233738 0.12143462 0.70035201 1.0055473e-38
0.27298501 0.12143462 0.70035201 1.0055473e-38
0.27363268 0.12143462 0.70035201 1.0332064e-38
0.27543917 0.1219477 0.70331109 1.0239867e-38
0.27225074 0.12025209 0.69353199 1.0054756e-38
0.27289206 0.12025209 0.69353199 1.0054754e-38
0.27353343 0.12025209 0.69353199 9.9625581e-39
0.27417475 0.12025209 0.69353199 9.7792458e-39
0.2748161 0.12025209 0.69353199 9.8714414e-39
0.27663395 0.12076569 0.6964941 9.7792458e-39
0.27727804 0.12076569 0.6964941 9.6866942e-39
0.27792209 0.12076569 0.6964941 9.6866914e-39
0.28565705 0.12383976 0.71422321 9.6859712e-39
0.28929418 0.12512726 0.72164857 9.8703624e-39
0.28996155 0.12512726 0.72164857 9.9625581e-39
0.29062888 0.12512726 0.72164857 9.6866914e-39
0.29129624 0.12512726 0.72164857 9.5944972e-39
0.28747642 0.12320418 0.71055764 9.5023016e-39
0.2881335 0.12320418 0.71055764 9.7788899e-39
0.28879058 0.12320418 0.71055764 1.0147671e-38
0.28725106 0.12226918 0.70516521 9.7788899e-39
0.28790316 0.12226918 0.70516521 9.7788899e-39
0.28855526 0.12226918 0.70516521 9.7788899e-39
0.28920737 0.12226918 0.70516521 9.7788899e-39
0.28985947 0.12226918 0.70516521 9.6866942e-39
0.28056395 0.1167719 0.6734606 9.6874103e-39
0.2811867 0.1167719 0.6734606 9.9643559e-39
0.28180951 0.1167719 0.6734606 1.0148749e-38
0.28243229 0.1167719 0.6734606 1.033278e-38
0.28305507 0.1167719 0.6734606 1.033278e-38
0.27642989 0.11378837 0.6562537 1.0148749e-38
0.27703676 0.11378837 0.6562537 9.7799647e-39
0.27764362 0.11378837 0.6562537 9.6874103e-39
0.27825052 0.11378837 0.6562537 9.7799647e-39
0.27885738 0.11378837 0.6562537 9.9643559e-39
0.28777149 0.1171708 0.67576122 9.9643559e-39
0.28082949 0.11144028 0.64271146 9.964e-39
0.28142384 0.11144028 0.64271146 1.0056554e-38
0.28201818 0.11144028 0.64271146 1.0332785e-38
0.28261253 0.11144028 0.64271146 1.0424981e-38
0.28320688 0.11144028 0.64271146 1.0332785e-38
0.28631082 0.11242572 0.64839482 1.0148395e-38
0.28691044 0.11242572 0.64839482 1.0148395e-38
0.25146094 0.12556216 0.72803974 1.0791573e-38
0.2521342 0.12556216 0.72803974 1.3464895e-38
0.25280744 0.12556216 0.72803974 1.1713899e-38
0.25635758 0.12698722 0.73630255 1.0054741e-38
0.25703844 0.12698722 0.73630255 9.5019302e-39
0.24793246 0.12184297 0.70647496 9.6863243e-39
0.24858579 0.12184297 0.70647496 9.8703596e-39
0.24923909 0.12184297 0.70647496 9.9625553e-39
0.24989241 0.12184297 0.70647496 9.8703596e-39
0.25054571 0.12184297 0.70647496 9.6870474e-39
0.25555584 0.11870776 0.68829626 1.2452189e-38
0.26207191 0.11994211 0.69545335 1.4847482e-38
0.26271504 0.11994211 0.69545335 1.2449316e-38
0.26377171 0.12013047 0.69654548 1.1435523e-38
0.26300424 0.11948915 0.69282693 9.9600371e-39
0.26364493 0.11948915 0.69282693 9.2224749e-39
0.26428565 0.11948915 0.69282693 1.0512858e-38
0.26443115 0.11926581 0.69153196 9.8689233e-39
0.26507065 0.11926581 0.69153196 1.0145151e-38
0.26571015 0.11926581 0.69153196 1.0238066e-38
0.26634964 0.11926581 0.69153196 1.0239148e-38
0.26698914 0.11926581 0.69153196 1.0239145e-38
0.27015457 0.12039147 0.69805878 1.0054754e-38
0.27080008 0.12039147 0.69805878 9.8703624e-39
0.27233738 0.12078697 0.70035201 1.0239145e-38
0.27298501 0.12078697 0.70035201 9.9625581e-39
0.27363268 0.12078697 0.70035201 1.0146949e-38
0.27543917 0.12129731 0.70331109 1.0054754e-38
0.27225074 0.11961075 0.69353199 1.0330262e-38
0.27289206 0.11961075 0.69353199 1.0515012e-38
0.27353343 0.11961075 0.69353199 1.0054035e-38
0.27417475 0.11961075 0.69353199 9.9625581e-39
0.2748161 0.11961075 0.69353199 1.0146949e-38
0.27663395 0.12012161 0.6964941 9.6859712e-39
0.27727804 0.12012161 0.6964941 9.685974e-39
0.27792209 0.12012161 0.6964941 9.8703624e-39
0.28565705 0.12317928 0.71422321 9.8703624e-39
0.28929418 0.12445991 0.72164857 9.6859712e-39
0.28996155 0.12445991 0.72164857 9.8703624e-39
0.29062888 0.12445991 0.72164857 9.7792458e-39
0.29129624 0.12445991 0.72164857 9.6866942e-39
0.28747642 0.1225471 0.71055764 9.6866942e-39
0.2881335 0.1225471 0.71055764 9.7788899e-39
0.28879058 0.1225471 0.71055764 1.0055117e-38
0.28725106 0.12161708 0.70516521 9.7788899e-39
0.28790316 0.12161708 0.70516521 9.7788899e-39
0.28855526 0.12161708 0.70516521 9.7788899e-39
0.28920737 0.12161708 0.70516521 9.7788899e-39
0.28985947 0.12161708 0.70516521 9.7788899e-39
0.28056395 0.11614911 0.6734606 9.7792458e-39
0.2811867 0.11614911 0.6734606 1.0147668e-38
0.28180951 0.11614911 0.6734606 1.0239864e-38
0.28243229 0.11614911 0.6734606 9.9643559e-39
0.28305507 0.11614911 0.6734606 1.0056552e-38
0.27642989 0.1131815 0.6562537 9.9643559e-39
0.27703676 0.1131815 0.6562537 9.6874103e-39
0.27764362 0.1131815 0.6562537 9.5033792e-39
0.27825052 0.1131815 0.6562537 9.7799647e-39
0.27885738 0.1131815 0.6562537 1.0056552e-38
0.28777149 0.11654589 0.67576122 1.0056552e-38
0.28082949 0.11084593 0.64271146 9.964e-39
0.28142384 0.11084593 0.64271146 1.0056554e-38
0.28201818 0.11084593 0.64271146 1.0332785e-38
0.28261253 0.11084593 0.64271146 1.0424981e-38
0.28320688 0.11084593 0.64271146 1.0332785e-38
0.28631082 0.11182611 0.64839482 1.0148395e-38
0.28691044 0.11182611 0.64839482 1.0056198e-38
0.25146094 0.1248889 0.72803974 1.0423151e-38
0.2521342 0.1248889 0.72803974 1.3280502e-38
0.25280744 0.1248889 0.72803974 1.1621704e-38
0.25635758 0.12630633 0.73630255 1.0054741e-38
0.25703844 0.12630633 0.73630255 9.5019302e-39
0.24793246 0.12118965 0.70647496 9.501933e-39
0.24858579 0.12118965 0.70647496 9.4093815e-39
0.24923909 0.12118965 0.70647496 9.5941315e-39
0.24989241 0.12118965 0.70647496 9.6863271e-39
0.25054571 0.12118965 0.70647496 9.779243e-39
0.25555584 0.11807126 0.68829626 9.7795961e-39
0.26207191 0.11929899 0.69545335 1.9181755e-38
0.26271504 0.11929899 0.69545335 1.9272868e-38
0.26377171 0.11948634 0.69654548 1.8719695e-38
0.26300424 0.11884846 0.69282693 1.3095765e-38
0.26364493 0.11884846 0.69282693 1.0973469e-38
0.26428565 0.11884846 0.69282693 9.9582421e-39
0.26443115 0.11862631 0.69153196 9.2217532e-39
0.26507065 0.11862631 0.69153196 9.2224721e-39
0.26571015 0.11862631 0.69153196 1.0329899e-38
0.26634964 0.11862631 0.69153196 1.0515009e-38
0.26698914 0.11862631 0.69153196 1.0422813e-38
0.27015457 0.11974593 0.69805878 1.0238063e-38
0.27080008 0.11974593 0.69805878 1.0607206e-38
0.27233738 0.12013932 0.70035201 1.0515009e-38
0.27298501 0.12013932 0.70035201 1.0515009e-38
0.27363268 0.12013932 0.70035201 1.0238063e-38
0.27543917 0.12064692 0.70331109 1.0422813e-38
0.27225074 0.1189694 0.69353199 1.0054032e-38
0.27289206 0.1189694 0.69353199 1.0422813e-38
0.27353343 0.1189694 0.69353199 1.0238066e-38
0.27417475 0.1189694 0.69353199 1.0238066e-38
0.2748161 0.1189694 0.69353199 1.0422457e-38
0.27663395 0.11947753 0.6964941 1.0238066e-38
0.27727804 0.11947753 0.6964941 1.0238066e-38
0.27792209 0.11947753 0.6964941 1.0239145e-38
0.28565705 0.1225188 0.71422321 1.0054754e-38
0.28929418 0.12379256 0.72164857 1.0054754e-38
0.28996155 0.12379256 0.72164857 1.0054754e-38
0.29062888 0.12379256 0.72164857 9.8714414e-39
0.29129624 0.12379256 0.72164857 9.7792458e-39
0.28747642 0.12189001 0.71055764 9.7792458e-39
0.2881335 0.12189001 0.71055764 9.7788899e-39
0.28879058 0.12189001 0.71055764 9.7788899e-39
0.28725106 0.12096498 0.70516521 9.8710855e-39
0.28790316 0.12096498 0.70516521 9.8710855e-39
0.28855526 0.12096498 0.70516521 9.7788899e-39
0.28920737 0.12096498 0.70516521 9.5944972e-39
0.28985947 0.12096498 0.70516521 9.5023016e-39
0.29259029 0.12074639 0.70389092 9.5944944e-39
0.28056395 0.11552633 0.6734606 9.6866914e-39
0.2811867 0.11552633 0.6734606 9.8714414e-39
0.28180951 0.11552633 0.6734606 9.8714414e-39
0.28243229 0.11552633 0.6734606 9.7799647e-39
0.28305507 0.11552633 0.6734606 9.8721603e-39
0.27642989 0.11257464 0.6562537 1.0056552e-38
0.27703676 0.11257464 0.6562537 9.7799647e-39
0.27764362 0.11257464 0.6562537 9.5033792e-39
0.27825052 0.11257464 0.6562537 9.6874103e-39
0.27885738 0.11257464 0.6562537 1.0056552e-38
0.28777149 0.11592098 0.67576122 1.0148749e-38
0.29475212 0.11847566 0.69065374 9.9643559e-39
0.2546382 0.12578514 0.73723865 1.0054011e-38
0.25531995 0.12578514 0.73723865 1.3096471e-38
0.25618365 0.12587453 0.73776257 1.1345477e-38
0.25426769 0.1246013 0.73030007 1.0238772e-38
0.25494301 0.1246013 0.73030007 9.5941259e-39
0.25561839 0.1246013 0.73030007 9.501933e-39
0.25629371 0.1246013 0.73030007 9.501933e-39
0.25696906 0.1246013 0.73030007 9.4093815e-39
0.26502955 0.1214856 0.71203864 1.0333489e-38
0.265688 0.1214856 0.71203864 9.4104535e-39
0.26634648 0.1214856 0.71203864 9.8696366e-39
0.26700491 0.1214856 0.71203864 1.1253291e-38
0.262844 0.1192982 0.69921809 1.4204629e-38
0.26349059 0.1192982 0.69921809 1.8168678e-38
0.26413721 0.1192982 0.69921809 1.9457979e-38
0.2647838 0.1192982 0.69921809 2.0195903e-38
0.26543042 0.1192982 0.69921809 2.0932749e-38
0.26721531 0.11980857 0.70220941 2.0745484e-38
0.2661033 0.11902075 0.6975919 1.7239176e-38
0.26674837 0.11902075 0.6975919 1.2170571e-38
0.2673935 0.11902075 0.6975919 1.0419573e-38
0.26803857 0.11902075 0.6975919 9.6827244e-39
0.26868367 0.11902075 0.6975919 9.3150208e-39
0.27361843 0.12091641 0.70870256 1.0697955e-38
0.27427381 0.12091641 0.70870256 1.0605404e-38
0.27538732 0.1211179 0.70988357 1.1158578e-38
0.27580827 0.12101457 0.70927787 1.1342972e-38
0.27646416 0.12101457 0.70927787 1.051429e-38
0.27712008 0.12101457 0.70927787 1.051429e-38
0.27777597 0.12101457 0.70927787 1.0698321e-38
0.27272773 0.11853538 0.69474709 1.0698321e-38
0.27337018 0.11853538 0.69474709 1.051429e-38
0.27401266 0.11853538 0.69474709 1.0698324e-38
0.27465513 0.11853538 0.69474709 1.0698324e-38
0.27529761 0.11853538 0.69474709 1.0698324e-38
0.27721936 0.11908492 0.69796807 1.0329543e-38
0.27786481 0.11908492 0.69796807 1.0145151e-38
0.27851027 0.11908492 0.69796807 1.0238066e-38
0.27991965 0.11941081 0.6998781 1.0330262e-38
0.28056684 0.11941081 0.6998781 1.0146949e-38
0.29004133 0.12315909 0.72184712 1.0331341e-38
0.29141343 0.1234576 0.72359669 1.0331341e-38
0.28922242 0.12224865 0.71651095 1.0054754e-38
0.28988498 0.12224865 0.71651095 9.6866914e-39
0.29054761 0.12224865 0.71651095 9.7788899e-39
0.29121017 0.12224865 0.71651095 9.7788899e-39
0.29014525 0.12152508 0.71227002 9.8710855e-39
0.29080391 0.12152508 0.71227002 9.8710855e-39
0.29146257 0.12152508 0.71227002 9.8710855e-39
0.29212123 0.12152508 0.71227002 9.5944972e-39
0.29277992 0.12152508 0.71227002 9.2257161e-39
0.29259029 0.12009546 0.70389092 9.6866942e-39
0.29324123 0.12009546 0.70389092 9.7788899e-39
0.29389215 0.12009546 0.70389092 9.7788899e-39
0.29454306 0.12009546 0.70389092 9.7788899e-39
0.29519397 0.12009546 0.70389092 9.7788899e-39
0.28657597 0.11607742 0.68034083 1.0056554e-38
0.28720513 0.11607742 0.68034083 9.8718044e-39
0.28783426 0.11607742 0.68034083 9.7796087e-39
0.28846341 0.11607742 0.68034083 9.6874131e-39
0.28909254 0.11607742 0.68034083 9.8718044e-39
0.29411343 0.11783698 0.69065374 9.964e-39
0.29475212 0.11783698 0.69065374 9.8718044e-39
0.2546382 0.12510337 0.73723865 9.5008372e-39
0.25531995 0.12510337 0.73723865 1.3096471e-38
0.25618365 0.12519228 0.73776257 1.1713899e-38
0.25426769 0.12392595 0.73030007 1.0607555e-38
0.25494301 0.12392595 0.73030007 9.6866802e-39
0.25561839 0.12392595 0.73030007 9.501933e-39
0.25629371 0.12392595 0.73030007 9.5941287e-39
0.25696906 0.12392595 0.73030007 9.8703596e-39
0.26502955 0.12082714 0.71203864 9.781394e-39
0.265688 0.12082714 0.71203864 9.964709e-39
0.26634648 0.12082714 0.71203864 1.0147302e-38
0.26700491 0.12082714 0.71203864 9.2264251e-39
0.262844 0.1186516 0.69921809 9.5026519e-39
0.26349059 0.1186516 0.69921809 1.0884865e-38
0.26413721 0.1186516 0.69921809 1.1621351e-38
0.2647838 0.1186516 0.69921809 1.586271e-38
0.26543042 0.1186516 0.69921809 2.0472491e-38
0.26721531 0.1191592 0.70220941 2.1853618e-38
0.2661033 0.11837564 0.6975919 2.2865961e-38
0.26674837 0.11837564 0.6975919 2.1299377e-38
0.2673935 0.11837564 0.6975919 1.7797019e-38
0.26803857 0.11837564 0.6975919 1.3187234e-38
0.26868367 0.11837564 0.6975919 1.0514993e-38
0.27361843 0.12026104 0.70870256 9.3160928e-39
0.27427381 0.12026104 0.70870256 9.8681918e-39
0.27538732 0.12046144 0.70988357 9.7756403e-39
0.27580827 0.12035866 0.70927787 1.1066382e-38
0.27646416 0.12035866 0.70927787 1.0790874e-38
0.27712008 0.12035866 0.70927787 1.0329896e-38
0.27777597 0.12035866 0.70927787 1.0514287e-38
0.27272773 0.11789291 0.69474709 1.0790874e-38
0.27337018 0.11789291 0.69474709 1.02377e-38
0.27401266 0.11789291 0.69474709 1.0329899e-38
0.27465513 0.11789291 0.69474709 1.0329899e-38
0.27529761 0.11789291 0.69474709 1.0329899e-38
0.27721936 0.11843948 0.69796807 1.0237703e-38
0.27786481 0.11843948 0.69796807 1.0237703e-38
0.27851027 0.11843948 0.69796807 1.0515009e-38
0.27991965 0.1187636 0.6998781 1.0607209e-38
0.28056684 0.1187636 0.6998781 1.0515012e-38
0.29004133 0.12249156 0.72184712 1.0331341e-38
0.29141343 0.12278844 0.72359669 1.0515732e-38
0.28922242 0.12158605 0.71651095 1.0146949e-38
0.28988498 0.12158605 0.71651095 9.7792458e-39
0.29054761 0.12158605 0.71651095 9.8714414e-39
0.29121017 0.12158605 0.71651095 1.0055473e-38
0.29014525 0.1208664 0.71227002 9.7792458e-39
0.29080391 0.1208664 0.71227002 9.6866914e-39
0.29146257 0.1208664 0.71227002 9.8714414e-39
0.29212123 0.1208664 0.71227002 9.7792458e-39
0.29277992 0.1208664 0.71227002 9.5022988e-39
0.29259029 0.11944454 0.70389092 1.0147671e-38
0.29324123 0.11944454 0.70389092 1.0055117e-38
0.29389215 0.11944454 0.70389092 1.0055117e-38
0.29454306 0.11944454 0.70389092 1.0055117e-38
0.29519397 0.11944454 0.70389092 9.8710855e-39
0.28657597 0.11544828 0.68034083 9.8718044e-39
0.28720513 0.11544828 0.68034083 9.964e-39
0.28783426 0.11544828 0.68034083 9.8718044e-39
0.28846341 0.11544828 0.68034083 9.6874131e-39
0.28909254 0.11544828 0.68034083 9.503382e-39
0.29411343 0.1171983 0.69065374 9.6874131e-39
0.29475212 0.1171983 0.69065374 9.7796087e-39
0.2546382 0.12442161 0.73723865 9.592314e-39
0.25531995 0.12442161 0.73723865 1.3004275e-38
0.25618365 0.12451003 0.73776257 1.1621704e-38
0.25426769 0.12325061 0.73030007 1.0699752e-38
0.25494301 0.12325061 0.73030007 9.9629084e-39
0.25561839 0.12325061 0.73030007 9.5941287e-39
0.25629371 0.12325061 0.73030007 9.8703568e-39
0.25696906 0.12325061 0.73030007 9.9625553e-39
0.26502955 0.12016868 0.71203864 9.7810381e-39
0.265688 0.12016868 0.71203864 1.0333133e-38
0.26634648 0.12016868 0.71203864 1.024022e-38
0.26700491 0.12016868 0.71203864 1.0147665e-38
0.262844 0.11800499 0.69921809 1.0239501e-38
0.26349059 0.11800499 0.69921809 9.2249874e-39
0.26413721 0.11800499 0.69921809 9.5930469e-39
0.2647838 0.11800499 0.69921809 1.0607559e-38
0.26543042 0.11800499 0.69921809 1.3373428e-38
0.26721531 0.11850983 0.70220941 1.6508079e-38
0.2661033 0.11773055 0.6975919 2.0563609e-38
0.26674837 0.11773055 0.6975919 2.2038724e-38
0.2673935 0.11773055 0.6975919 2.2775202e-38
0.26803857 0.11773055 0.6975919 2.222383e-38
0.26868367 0.11773055 0.6975919 1.9457964e-38
0.27361843 0.11960566 0.70870256 1.5309162e-38
0.27427381 0.11960566 0.70870256 1.2173438e-38
0.27538732 0.11980498 0.70988357 1.0605757e-38
0.27580827 0.11970276 0.70927787 9.5916091e-39
0.27646416 0.11970276 0.70927787 9.4994121e-39
0.27712008 0.11970276 0.70927787 1.0882348e-38
0.27777597 0.11970276 0.70927787 1.0697955e-38
0.27272773 0.11725044 0.69474709 1.042101e-38
0.27337018 0.11725044 0.69474709 1.0513208e-38
0.27401266 0.11725044 0.69474709 1.0421015e-38
0.27465513 0.11725044 0.69474709 9.8689205e-39
0.27529761 0.11725044 0.69474709 9.8689205e-39
0.27721936 0.11779403 0.69796807 9.8689205e-39
0.27786481 0.11779403 0.69796807 1.0052952e-38
0.27851027 0.11779403 0.69796807 1.051429e-38
0.27991965 0.11811639 0.6998781 1.0790521e-38
0.28056684 0.11811639 0.6998781 1.0422457e-38
0.29004133 0.12182403 0.72184712 1.0330262e-38
0.29141343 0.1221193 0.72359669 1.0054754e-38
0.28922242 0.12092346 0.71651095 9.9625581e-39
0.28889823 0.12051184 0.71407199 1.0055473e-38
0.28955859 0.12051184 0.71407199 1.0239864e-38
0.29021892 0.12051184 0.71407199 1.0055473e-38
0.28759417 0.11915082 0.70600748 9.6866914e-39
0.28824705 0.11915082 0.70600748 9.5944944e-39
0.28889993 0.11915082 0.70600748 9.6866914e-39
0.28955281 0.11915082 0.70600748 9.8714414e-39
0.29020569 0.11915082 0.70600748 9.8714414e-39
0.29461828 0.12069099 0.71513349 9.6866914e-39
0.29527959 0.12069099 0.71513349 9.6866914e-39
0.29831377 0.12138744 0.71926016 9.7788899e-39
0.29897889 0.12138744 0.71926016 1.0055117e-38
0.29964405 0.12138744 0.71926016 1.0055117e-38
0.30030918 0.12138744 0.71926016 1.0147671e-38
0.29411799 0.11862218 0.70287508 1.0239867e-38
0.29476798 0.11862218 0.70287508 1.0147671e-38
0.29541796 0.11862218 0.70287508 9.8710855e-39
0.29606792 0.11862218 0.70287508 9.8718044e-39
0.29542324 0.11810458 0.69980818 9.964e-39
0.29607037 0.11810458 0.69980818 9.8718044e-39
0.29671752 0.11810458 0.69980818 9.6874131e-39
0.29736468 0.11810458 0.69980818 9.6874131e-39
