# .PCD v0.7 - Point Cloud Data file format
VERSION 0.7
FIELDS x y z rgb
SIZE 4 4 4 4
TYPE F F F F
COUNT 1 1 1 1
WIDTH 1028
HEIGHT 1
VIEWPOINT 0 0 0 1 0 0 0
POINTS 1028
DATA ascii
0.97032094 -0.10114306 1.4112682 1.687719e-38
0.97162592 -0.10114306 1.4112682 1.6784994e-38
0.95957869 -0.099754989 1.3919002 1.687719e-38
0.96086586 -0.099754989 1.3919002 1.687719e-38
0.96215302 -0.099754989 1.3919002 1.6784994e-38
0.96160245 -0.099564716 1.3892453 1.6692797e-38
0.96288717 -0.099564716 1.3892453 1.6784994e-38
0.96417189 -0.099564716 1.3892453 1.6784997e-38
0.96545666 -0.099564716 1.3892453 1.6784997e-38
0.96674126 -0.099564716 1.3892453 1.6877192e-38
0.96802604 -0.099564716 1.3892453 1.6784997e-38
0.96931076 -0.099564716 1.3892453 1.6784997e-38
0.97059548 -0.099564716 1.3892453 1.6969388e-38
0.97412443 -0.099794641 1.3924534 1.7245255e-38
0.96252072 -0.098475717 1.3740503 1.71527e-38
0.96379143 -0.098475717 1.3740503 1.71527e-38
0.96506208 -0.098475717 1.3740503 1.7245255e-38
0.96633267 -0.098475717 1.3740503 1.71527e-38
0.94537532 -0.096213505 1.3424852 1.71527e-38
0.94661677 -0.096213505 1.3424852 1.733745e-38
0.94785827 -0.096213505 1.3424852 1.7429646e-38
0.94909966 -0.096213505 1.3424852 1.7429646e-38
0.95034117 -0.096213505 1.3424852 1.7613679e-38
0.97564477 -0.106892 1.4724844 1.5494255e-38
0.97700644 -0.106892 1.4724844 1.5310943e-38
0.97836816 -0.106892 1.4724844 1.5310943e-38
0.97972989 -0.106892 1.4724844 1.5494974e-38
0.95513421 -0.1040639 1.433526 1.586268e-38
0.95645988 -0.1040639 1.433526 1.586268e-38
0.95778555 -0.1040639 1.433526 1.586268e-38
0.95911127 -0.1040639 1.433526 1.5678649e-38
0.96043682 -0.1040639 1.433526 1.586268e-38
1.0061021 -0.1088615 1.4996151 1.5678649e-38
0.97482497 -0.10418484 1.435192 1.5954879e-38
0.97615218 -0.10418484 1.435192 1.6139627e-38
0.97747934 -0.10418484 1.435192 1.6139627e-38
0.97681433 -0.10397278 1.4322709 1.6139625e-38
0.97813886 -0.10397278 1.4322709 1.6324375e-38
0.9794634 -0.10397278 1.4322709 1.6600601e-38
0.98078781 -0.10397278 1.4322709 1.6692797e-38
0.96771073 -0.10244814 1.4112682 1.6600601e-38
0.96901584 -0.10244814 1.4112682 1.6692797e-38
0.97032094 -0.10244814 1.4112682 1.6784994e-38
0.97162592 -0.10244814 1.4112682 1.6784994e-38
0.95957869 -0.10104215 1.3919002 1.687719e-38
0.96086586 -0.10104215 1.3919002 1.687719e-38
0.96215302 -0.10104215 1.3919002 1.6784994e-38
0.96160245 -0.10084943 1.3892453 1.6784994e-38
0.96288717 -0.10084943 1.3892453 1.687719e-38
0.96417189 -0.10084943 1.3892453 1.6969744e-38
0.96545666 -0.10084943 1.3892453 1.687719e-38
0.96674126 -0.10084943 1.3892453 1.6969388e-38
0.96802604 -0.10084943 1.3892453 1.6969744e-38
0.96931076 -0.10084943 1.3892453 1.687719e-38
0.97059548 -0.10084943 1.3892453 1.6969744e-38
0.97412443 -0.10108232 1.3924534 1.6969744e-38
0.96252072 -0.099746376 1.3740503 1.6969744e-38
0.96379143 -0.099746376 1.3740503 1.7153056e-38
0.96506208 -0.099746376 1.3740503 1.7245252e-38
0.96633267 -0.099746376 1.3740503 1.7337448e-38
0.94537532 -0.097454973 1.3424852 1.7337448e-38
0.94661677 -0.097454973 1.3424852 1.7429643e-38
0.94785827 -0.097454973 1.3424852 1.770623e-38
0.94909966 -0.097454973 1.3424852 1.770623e-38
0.95034117 -0.097454973 1.3424852 1.7613676e-38
0.97564477 -0.10825368 1.4724844 1.5402058e-38
0.97700644 -0.10825368 1.4724844 1.5494974e-38
0.97836816 -0.10825368 1.4724844 1.558717e-38
0.97972989 -0.10825368 1.4724844 1.5679724e-38
0.95513421 -0.10538955 1.433526 1.586268e-38
0.95645988 -0.10538955 1.433526 1.5678649e-38
0.95778555 -0.10538955 1.433526 1.586268e-38
0.95911127 -0.10538955 1.433526 1.604743e-38
0.96043682 -0.10538955 1.433526 1.5955235e-38
1.0061021 -0.11024827 1.4996151 1.5678649e-38
0.97482497 -0.10551203 1.435192 1.5954879e-38
0.97615218 -0.10551203 1.435192 1.6139627e-38
0.97747934 -0.10551203 1.435192 1.6139627e-38
0.97681433 -0.10529727 1.4322709 1.6139625e-38
0.97813886 -0.10529727 1.4322709 1.641657e-38
0.9794634 -0.10529727 1.4322709 1.6692797e-38
0.98078781 -0.10529727 1.4322709 1.6692797e-38
0.96771073 -0.10375321 1.4112682 1.641657e-38
0.96901584 -0.10375321 1.4112682 1.641657e-38
0.97032094 -0.10375321 1.4112682 1.6692797e-38
0.97162592 -0.10375321 1.4112682 1.6784994e-38
0.95957869 -0.10232931 1.3919002 1.6692797e-38
0.96086586 -0.10232931 1.3919002 1.6692797e-38
0.96215302 -0.10232931 1.3919002 1.6784994e-38
0.96160245 -0.10213413 1.3892453 1.687719e-38
0.96288717 -0.10213413 1.3892453 1.6969744e-38
0.96417189 -0.10213413 1.3892453 1.6969744e-38
0.96545666 -0.10213413 1.3892453 1.6969744e-38
0.96674126 -0.10213413 1.3892453 1.6877192e-38
0.96802604 -0.10213413 1.3892453 1.706194e-38
0.96931076 -0.10213413 1.3892453 1.7245971e-38
0.97059548 -0.10213413 1.3892453 1.706194e-38
0.97412443 -0.10236999 1.3924534 1.687719e-38
0.96252072 -0.10101703 1.3740503 1.6784994e-38
0.96379143 -0.10101703 1.3740503 1.7153056e-38
0.96506208 -0.10101703 1.3740503 1.7245252e-38
0.96633267 -0.10101703 1.3740503 1.7245252e-38
0.94537532 -0.09869644 1.3424852 1.7337448e-38
0.94661677 -0.09869644 1.3424852 1.7429643e-38
0.94785827 -0.09869644 1.3424852 1.7613676e-38
0.94909966 -0.09869644 1.3424852 1.7613676e-38
0.95034117 -0.09869644 1.3424852 1.7613676e-38
0.95607114 -0.10667183 1.4329433 1.5494258e-38
0.96605039 -0.10763606 1.445896 1.586268e-38
0.9673875 -0.10763606 1.445896 1.6139627e-38
0.9776991 -0.10863324 1.4592913 1.604743e-38
0.97904861 -0.10863324 1.4592913 1.5955235e-38
0.98039812 -0.10863324 1.4592913 1.604743e-38
0.96254987 -0.1049225 1.4094442 1.6139625e-38
0.9638533 -0.1049225 1.4094442 1.6324375e-38
0.96515661 -0.1049225 1.4094442 1.641657e-38
0.96280169 -0.10452534 1.4041091 1.641657e-38
0.96410018 -0.10452534 1.4041091 1.641657e-38
0.96539867 -0.10452534 1.4041091 1.641657e-38
0.96669704 -0.10452534 1.4041091 1.6692797e-38
0.94461417 -0.10200059 1.3701937 1.6600601e-38
0.94588131 -0.10200059 1.3701937 1.6692797e-38
0.94714838 -0.10200059 1.3701937 1.687719e-38
0.94841546 -0.10200059 1.3701937 1.6969744e-38
0.94035393 -0.10099865 1.3567345 1.6969744e-38
0.94160861 -0.10099865 1.3567345 1.6969744e-38
0.94286329 -0.10099865 1.3567345 1.6969744e-38
0.94411784 -0.10099865 1.3567345 1.687719e-38
0.94537252 -0.10099865 1.3567345 1.6969744e-38
0.9466272 -0.10099865 1.3567345 1.706194e-38
0.94788182 -0.10099865 1.3567345 1.706194e-38
0.94913644 -0.10099865 1.3567345 1.706194e-38
0.95510793 -0.10149992 1.3634681 1.7061937e-38
0.9563688 -0.10149992 1.3634681 1.7061937e-38
0.95762968 -0.10149992 1.3634681 1.6969741e-38
0.9588905 -0.10149992 1.3634681 1.6969741e-38
0.96015137 -0.10149992 1.3634681 1.7245968e-38
0.97138953 -0.10255326 1.3776177 1.7337445e-38
0.97266352 -0.10255326 1.3776177 1.7245249e-38
0.97393739 -0.10255326 1.3776177 1.7429999e-38
0.95607114 -0.10799695 1.4329433 1.5586454e-38
0.96605039 -0.10897315 1.445896 1.5678649e-38
0.9673875 -0.10897315 1.445896 1.5955235e-38
0.9776991 -0.10998272 1.4592913 1.5955235e-38
0.97904861 -0.10998272 1.4592913 1.5955235e-38
0.98039812 -0.10998272 1.4592913 1.604743e-38
0.96254987 -0.10622588 1.4094442 1.604743e-38
0.9638533 -0.10622588 1.4094442 1.623182e-38
0.96515661 -0.10622588 1.4094442 1.6324375e-38
0.96280169 -0.10582379 1.4041091 1.6600601e-38
0.96410018 -0.10582379 1.4041091 1.6600601e-38
0.96539867 -0.10582379 1.4041091 1.641657e-38
0.96669704 -0.10582379 1.4041091 1.6600601e-38
0.94461417 -0.10326768 1.3701937 1.6600601e-38
0.94588131 -0.10326768 1.3701937 1.6692797e-38
0.94714838 -0.10326768 1.3701937 1.687719e-38
0.94841546 -0.10326768 1.3701937 1.706194e-38
0.94035393 -0.1022533 1.3567345 1.6969744e-38
0.94160861 -0.1022533 1.3567345 1.687719e-38
0.94286329 -0.1022533 1.3567345 1.6784994e-38
0.94411784 -0.1022533 1.3567345 1.6784994e-38
0.94537252 -0.1022533 1.3567345 1.687719e-38
0.9466272 -0.1022533 1.3567345 1.6969744e-38
0.94788182 -0.1022533 1.3567345 1.6969744e-38
0.94913644 -0.1022533 1.3567345 1.7245971e-38
0.95510793 -0.10276078 1.3634681 1.7338164e-38
0.9563688 -0.10276078 1.3634681 1.7245968e-38
0.95762968 -0.10276078 1.3634681 1.6877546e-38
0.9588905 -0.10276078 1.3634681 1.6877546e-38
0.96015137 -0.10276078 1.3634681 1.7245968e-38
0.97138953 -0.10382721 1.3776177 1.7337445e-38
0.97266352 -0.10382721 1.3776177 1.7245249e-38
0.97393739 -0.10382721 1.3776177 1.7337445e-38
0.95607114 -0.10932206 1.4329433 1.5863036e-38
0.96605039 -0.11031025 1.445896 1.5586451e-38
0.9673875 -0.11031025 1.445896 1.5494255e-38
0.9776991 -0.1113322 1.4592913 1.5863036e-38
0.97904861 -0.1113322 1.4592913 1.5955232e-38
0.98039812 -0.1113322 1.4592913 1.5863036e-38
0.96254987 -0.10752927 1.4094442 1.623182e-38
0.9638533 -0.10752927 1.4094442 1.6324375e-38
0.96515661 -0.10752927 1.4094442 1.641657e-38
0.96280169 -0.10712224 1.4041091 1.6692797e-38
0.96410018 -0.10712224 1.4041091 1.6692797e-38
0.96539867 -0.10712224 1.4041091 1.641657e-38
0.96669704 -0.10712224 1.4041091 1.6324375e-38
0.94461417 -0.10453477 1.3701937 1.641657e-38
0.94588131 -0.10453477 1.3701937 1.6692797e-38
0.94714838 -0.10453477 1.3701937 1.6784994e-38
0.94841546 -0.10453477 1.3701937 1.687719e-38
0.94035393 -0.10350794 1.3567345 1.6969744e-38
0.94160861 -0.10350794 1.3567345 1.687719e-38
0.94286329 -0.10350794 1.3567345 1.6692794e-38
0.94411784 -0.10350794 1.3567345 1.6600599e-38
0.94537252 -0.10350794 1.3567345 1.6877546e-38
0.9466272 -0.10350794 1.3567345 1.7061937e-38
0.94788182 -0.10350794 1.3567345 1.6969741e-38
0.94913644 -0.10350794 1.3567345 1.6877546e-38
0.95510793 -0.10402165 1.3634681 1.6969741e-38
0.9563688 -0.10402165 1.3634681 1.7061937e-38
0.95762968 -0.10402165 1.3634681 1.6969741e-38
0.9588905 -0.10402165 1.3634681 1.6969741e-38
0.96015137 -0.10402165 1.3634681 1.7245968e-38
0.97138953 -0.10510116 1.3776177 1.7338164e-38
0.97266352 -0.10510116 1.3776177 1.7338164e-38
0.97393739 -0.10510116 1.3776177 1.7338164e-38
0.96731001 -0.11225905 1.453818 1.5494974e-38
0.96865439 -0.11225905 1.453818 1.5863036e-38
0.96999884 -0.11225905 1.453818 1.5863036e-38
0.97134328 -0.11225905 1.453818 1.5586451e-38
0.97268772 -0.11225905 1.453818 1.5402058e-38
0.97642374 -0.11253469 1.4573877 1.5586451e-38
0.97777146 -0.11253469 1.4573877 1.5863036e-38
0.97911918 -0.11253469 1.4573877 1.5863036e-38
0.9636634 -0.10985105 1.4226331 1.6507331e-38
0.96497899 -0.10985105 1.4226331 1.632294e-38
0.96629459 -0.10985105 1.4226331 1.6138907e-38
0.96761018 -0.10985105 1.4226331 1.623182e-38
0.96892571 -0.10985105 1.4226331 1.6324375e-38
0.95556223 -0.10746054 1.3916745 1.641657e-38
0.95684922 -0.10746054 1.3916745 1.6324375e-38
0.95813614 -0.10746054 1.3916745 1.6600601e-38
0.94842535 -0.10622872 1.3757219 1.6692797e-38
0.94969755 -0.10622872 1.3757219 1.6692797e-38
0.95096982 -0.10622872 1.3757219 1.6692797e-38
0.94081235 -0.10495368 1.3592094 1.6692797e-38
0.94206929 -0.10495368 1.3592094 1.6692797e-38
0.94332623 -0.10495368 1.3592094 1.6692797e-38
0.94458324 -0.10495368 1.3592094 1.6692794e-38
0.94584006 -0.10495368 1.3592094 1.678535e-38
0.947097 -0.10495368 1.3592094 1.678535e-38
0.94835401 -0.10495368 1.3592094 1.678535e-38
0.94147778 -0.10405479 1.3475682 1.678535e-38
0.94272387 -0.10405479 1.3475682 1.6877546e-38
0.94397008 -0.10405479 1.3475682 1.678535e-38
0.94521624 -0.10405479 1.3475682 1.678535e-38
0.94646245 -0.10405479 1.3475682 1.6969741e-38
0.96309334 -0.10574397 1.3694441 1.6969741e-38
0.96435976 -0.10574397 1.3694441 1.7061937e-38
0.96562618 -0.10574397 1.3694441 1.7338164e-38
0.9668926 -0.10574397 1.3694441 1.7522915e-38
0.9681589 -0.10574397 1.3694441 1.7522915e-38
0.96731001 -0.11360347 1.453818 1.5863036e-38
0.96865439 -0.11360347 1.453818 1.5955232e-38
0.96999884 -0.11360347 1.453818 1.6047428e-38
0.97134328 -0.11360347 1.453818 1.5863036e-38
0.97268772 -0.11360347 1.453818 1.5494255e-38
0.97642374 -0.11388241 1.4573877 1.5586451e-38
0.97777146 -0.11388241 1.4573877 1.5955232e-38
0.97911918 -0.11388241 1.4573877 1.5863036e-38
0.9636634 -0.11116663 1.4226331 1.6324375e-38
0.96497899 -0.11116663 1.4226331 1.6047428e-38
0.96629459 -0.11116663 1.4226331 1.586268e-38
0.96761018 -0.11116663 1.4226331 1.6047428e-38
0.96892571 -0.11116663 1.4226331 1.6324375e-38
0.95556223 -0.10874749 1.3916745 1.6600601e-38
0.95684922 -0.10874749 1.3916745 1.6600601e-38
0.95813614 -0.10874749 1.3916745 1.6692797e-38
0.94842535 -0.10750093 1.3757219 1.678535e-38
0.94969755 -0.10750093 1.3757219 1.678535e-38
0.95096982 -0.10750093 1.3757219 1.6692794e-38
0.94081235 -0.10621062 1.3592094 1.6692794e-38
0.94206929 -0.10621062 1.3592094 1.678535e-38
0.94332623 -0.10621062 1.3592094 1.678535e-38
0.94458324 -0.10621062 1.3592094 1.6692794e-38
0.94584006 -0.10621062 1.3592094 1.678535e-38
0.947097 -0.10621062 1.3592094 1.6877546e-38
0.94835401 -0.10621062 1.3592094 1.6877546e-38
0.94147778 -0.10530095 1.3475682 1.6877546e-38
0.94272387 -0.10530095 1.3475682 1.6877546e-38
0.94397008 -0.10530095 1.3475682 1.678535e-38
0.94521624 -0.10530095 1.3475682 1.678535e-38
0.94646245 -0.10530095 1.3475682 1.6877546e-38
0.96309334 -0.10701037 1.3694441 1.7061937e-38
0.96435976 -0.10701037 1.3694441 1.7061937e-38
0.96562618 -0.10701037 1.3694441 1.7061937e-38
0.9668926 -0.10701037 1.3694441 1.7061937e-38
0.9681589 -0.10701037 1.3694441 1.7245968e-38
0.96731001 -0.11494789 1.453818 1.6047428e-38
0.96865439 -0.11494789 1.453818 1.5954513e-38
0.96999884 -0.11494789 1.453818 1.6046709e-38
0.97134328 -0.11494789 1.453818 1.5954513e-38
0.97268772 -0.11494789 1.453818 1.5770122e-38
0.97642374 -0.11523013 1.4573877 1.5862317e-38
0.97777146 -0.11523013 1.4573877 1.5954513e-38
0.97911918 -0.11523013 1.4573877 1.5954513e-38
0.9636634 -0.11248221 1.4226331 1.623182e-38
0.96497899 -0.11248221 1.4226331 1.6047428e-38
0.96629459 -0.11248221 1.4226331 1.5955235e-38
0.96761018 -0.11248221 1.4226331 1.6047428e-38
0.96892571 -0.11248221 1.4226331 1.641657e-38
0.95556223 -0.11003444 1.3916745 1.6600601e-38
0.95684922 -0.11003444 1.3916745 1.6600601e-38
0.95813614 -0.11003444 1.3916745 1.6784994e-38
0.94842535 -0.10877313 1.3757219 1.678535e-38
0.94969755 -0.10877313 1.3757219 1.678535e-38
0.95096982 -0.10877313 1.3757219 1.6692794e-38
0.94081235 -0.10746755 1.3592094 1.6692794e-38
0.94206929 -0.10746755 1.3592094 1.678535e-38
0.94332623 -0.10746755 1.3592094 1.678535e-38
0.94458324 -0.10746755 1.3592094 1.678535e-38
0.94584006 -0.10746755 1.3592094 1.678535e-38
0.947097 -0.10746755 1.3592094 1.678535e-38
0.94835401 -0.10746755 1.3592094 1.6969741e-38
0.94147778 -0.10654712 1.3475682 1.7061937e-38
0.94272387 -0.10654712 1.3475682 1.7061937e-38
0.94397008 -0.10654712 1.3475682 1.7061937e-38
0.94521624 -0.10654712 1.3475682 1.7061937e-38
0.94646245 -0.10654712 1.3475682 1.7061937e-38
0.96309334 -0.10827677 1.3694441 1.7338164e-38
0.96435976 -0.10827677 1.3694441 1.7338164e-38
0.96562618 -0.10827677 1.3694441 1.7061937e-38
0.9668926 -0.10827677 1.3694441 1.6969741e-38
0.9681589 -0.10827677 1.3694441 1.7061937e-38
0.96888429 -0.11648157 1.456184 1.5955232e-38
0.97023088 -0.11648157 1.456184 1.5862317e-38
0.97157747 -0.11648157 1.456184 1.5677567e-38
0.9668228 -0.1157511 1.4470521 1.5677567e-38
0.96816099 -0.1157511 1.4470521 1.5862317e-38
0.96949905 -0.1157511 1.4470521 1.5954513e-38
0.97083724 -0.1157511 1.4470521 1.5954513e-38
0.97217542 -0.1157511 1.4470521 1.5862317e-38
0.97643334 -0.11609825 1.4513921 1.5954513e-38
0.97777545 -0.11609825 1.4513921 1.6046709e-38
0.95395011 -0.11311403 1.414085 1.5863036e-38
0.95525783 -0.11311403 1.414085 1.5863036e-38
0.9565655 -0.11311403 1.414085 1.5955232e-38
0.95773578 -0.11309781 1.4138823 1.6139625e-38
0.95904326 -0.11309781 1.4138823 1.6139625e-38
0.96035081 -0.11309781 1.4138823 1.6139625e-38
0.9616583 -0.11309781 1.4138823 1.623182e-38
0.94255453 -0.11070057 1.3839134 1.641657e-38
0.94383436 -0.11070057 1.3839134 1.623182e-38
0.94511414 -0.11070057 1.3839134 1.6139625e-38
0.94639397 -0.11070057 1.3839134 1.6139625e-38
0.94767368 -0.11070057 1.3839134 1.623182e-38
0.94892555 -0.11054823 1.3820089 1.641657e-38
0.9502036 -0.11054823 1.3820089 1.6600599e-38
0.95148158 -0.11054823 1.3820089 1.678535e-38
0.94767797 -0.10995861 1.3746378 1.678535e-38
0.94894922 -0.10995861 1.3746378 1.6692794e-38
0.95022041 -0.10995861 1.3746378 1.6600954e-38
0.95149153 -0.10995861 1.3746378 1.6600954e-38
0.95276278 -0.10995861 1.3746378 1.669315e-38
0.95403397 -0.10995861 1.3746378 1.6877543e-38
0.95530522 -0.10995861 1.3746378 1.6969738e-38
0.95657635 -0.10995861 1.3746378 1.678535e-38
0.95998406 -0.11020388 1.377704 1.6692794e-38
0.95641184 -0.10964827 1.3707582 1.6969741e-38
0.95767945 -0.10964827 1.3707582 1.7245968e-38
0.958947 -0.10964827 1.3707582 1.7245968e-38
0.96021467 -0.10964827 1.3707582 1.7245968e-38
0.96148229 -0.10964827 1.3707582 1.7245968e-38
0.97369462 -0.11089478 1.3863412 1.7061937e-38
0.9749766 -0.11089478 1.3863412 1.6969741e-38
0.97625864 -0.11089478 1.3863412 1.7061937e-38
0.97845119 -0.11099806 1.3876325 1.7061937e-38
0.97973442 -0.11099806 1.3876325 1.7061937e-38
0.98101759 -0.11099806 1.3876325 1.7061937e-38
0.96888429 -0.11782818 1.456184 1.5494255e-38
0.97023088 -0.11782818 1.456184 1.5677567e-38
0.97157747 -0.11782818 1.456184 1.5493535e-38
0.9668228 -0.11708926 1.4470521 1.5677567e-38
0.96816099 -0.11708926 1.4470521 1.5862317e-38
0.96949905 -0.11708926 1.4470521 1.6046709e-38
0.97083724 -0.11708926 1.4470521 1.5954513e-38
0.97217542 -0.11708926 1.4470521 1.5954513e-38
0.97643334 -0.11744043 1.4513921 1.6046709e-38
0.97777545 -0.11744043 1.4513921 1.5954513e-38
0.95395011 -0.11442171 1.414085 1.5679005e-38
0.95525783 -0.11442171 1.414085 1.5863036e-38
0.9565655 -0.11442171 1.414085 1.5955232e-38
0.95773578 -0.1144053 1.4138823 1.6139625e-38
0.95904326 -0.1144053 1.4138823 1.623182e-38
0.96035081 -0.1144053 1.4138823 1.623182e-38
0.9616583 -0.1144053 1.4138823 1.623182e-38
0.94255453 -0.11198035 1.3839134 1.6324375e-38
0.94383436 -0.11198035 1.3839134 1.623182e-38
0.94511414 -0.11198035 1.3839134 1.6139625e-38
0.94639397 -0.11198035 1.3839134 1.6139625e-38
0.94767368 -0.11198035 1.3839134 1.623182e-38
0.94892555 -0.11182625 1.3820089 1.6600601e-38
0.9502036 -0.11182625 1.3820089 1.6600599e-38
0.95148158 -0.11182625 1.3820089 1.678535e-38
0.94767797 -0.11122981 1.3746378 1.678535e-38
0.94894922 -0.11122981 1.3746378 1.6692794e-38
0.95022041 -0.11122981 1.3746378 1.6600954e-38
0.95149153 -0.11122981 1.3746378 1.6600236e-38
0.95276278 -0.11122981 1.3746378 1.6692431e-38
0.95403397 -0.11122981 1.3746378 1.6784627e-38
0.95530522 -0.11122981 1.3746378 1.7060855e-38
0.95657635 -0.11122981 1.3746378 1.678463e-38
0.95998406 -0.11147791 1.377704 1.6692794e-38
0.95641184 -0.11091588 1.3707582 1.678535e-38
0.95767945 -0.11091588 1.3707582 1.6969741e-38
0.958947 -0.11091588 1.3707582 1.706194e-38
0.96021467 -0.11091588 1.3707582 1.706194e-38
0.96148229 -0.11091588 1.3707582 1.6969744e-38
0.97369462 -0.1121768 1.3863412 1.6784994e-38
0.9749766 -0.1121768 1.3863412 1.687719e-38
0.97625864 -0.1121768 1.3863412 1.6969744e-38
0.97845119 -0.11228128 1.3876325 1.706194e-38
0.97973442 -0.11228128 1.3876325 1.7245971e-38
0.98101759 -0.11228128 1.3876325 1.706194e-38
0.96888429 -0.11917479 1.456184 1.5309863e-38
0.97023088 -0.11917479 1.456184 1.5677567e-38
0.97157747 -0.11917479 1.456184 1.5677567e-38
0.9668228 -0.11842743 1.4470521 1.5677567e-38
0.96816099 -0.11842743 1.4470521 1.5770122e-38
0.96949905 -0.11842743 1.4470521 1.5862317e-38
0.97083724 -0.11842743 1.4470521 1.5954513e-38
0.97217542 -0.11842743 1.4470521 1.5954513e-38
0.97643334 -0.11878261 1.4513921 1.5862317e-38
0.97777545 -0.11878261 1.4513921 1.5862317e-38
0.95395011 -0.11572938 1.414085 1.5679005e-38
0.95525783 -0.11572938 1.414085 1.5955232e-38
0.9565655 -0.11572938 1.414085 1.6139625e-38
0.95773578 -0.11571279 1.4138823 1.6047428e-38
0.95904326 -0.11571279 1.4138823 1.6139625e-38
0.96035081 -0.11571279 1.4138823 1.623182e-38
0.9616583 -0.11571279 1.4138823 1.6324372e-38
0.94255453 -0.11326012 1.3839134 1.6324372e-38
0.94383436 -0.11326012 1.3839134 1.6232176e-38
0.94511414 -0.11326012 1.3839134 1.6232176e-38
0.94639397 -0.11326012 1.3839134 1.6232176e-38
0.94767368 -0.11326012 1.3839134 1.6324375e-38
0.94892555 -0.11310426 1.3820089 1.6600601e-38
0.9502036 -0.11310426 1.3820089 1.6600599e-38
0.95148158 -0.11310426 1.3820089 1.6692794e-38
0.94767797 -0.11250101 1.3746378 1.6692794e-38
0.94894922 -0.11250101 1.3746378 1.6692794e-38
0.95022041 -0.11250101 1.3746378 1.6600954e-38
0.95149153 -0.11250101 1.3746378 1.6600236e-38
0.95276278 -0.11250101 1.3746378 1.6600236e-38
0.95403397 -0.11250101 1.3746378 1.6692431e-38
0.95530522 -0.11250101 1.3746378 1.678463e-38
0.95657635 -0.11250101 1.3746378 1.6968662e-38
0.95998406 -0.11275195 1.377704 1.678535e-38
0.95641184 -0.1121835 1.3707582 1.678535e-38
0.95767945 -0.1121835 1.3707582 1.6969741e-38
0.958947 -0.1121835 1.3707582 1.706194e-38
0.96021467 -0.1121835 1.3707582 1.706194e-38
0.96148229 -0.1121835 1.3707582 1.6969744e-38
0.97369462 -0.11345882 1.3863412 1.687719e-38
0.9749766 -0.11345882 1.3863412 1.7245971e-38
0.97625864 -0.11345882 1.3863412 1.7245971e-38
0.97845119 -0.1135645 1.3876325 1.7338166e-38
0.97973442 -0.1135645 1.3876325 1.7430363e-38
0.98101759 -0.1135645 1.3876325 1.7245971e-38
0.96294171 -0.11928482 1.4412433 1.5770122e-38
0.96427453 -0.11928482 1.4412433 1.5677567e-38
0.96560729 -0.11928482 1.4412433 1.5677567e-38
0.96694005 -0.11928482 1.4412433 1.5862317e-38
0.96069175 -0.11835088 1.4299591 1.5954513e-38
0.96201414 -0.11835088 1.4299591 1.5862317e-38
0.96333647 -0.11835088 1.4299591 1.5954513e-38
0.9632777 -0.11818143 1.4279118 1.5954513e-38
0.96459818 -0.11818143 1.4279118 1.6046709e-38
0.96591866 -0.11818143 1.4279118 1.6047428e-38
0.96723908 -0.11818143 1.4279118 1.6047428e-38
0.96855956 -0.11818143 1.4279118 1.6139625e-38
0.97025901 -0.11822761 1.4284697 1.6324375e-38
0.95401829 -0.1160906 1.4026495 1.6324372e-38
0.95531535 -0.1160906 1.4026495 1.6324372e-38
0.95661247 -0.1160906 1.4026495 1.6324372e-38
0.95790958 -0.1160906 1.4026495 1.6324372e-38
0.94404685 -0.11425584 1.3804812 1.6324372e-38
0.94532341 -0.11425584 1.3804812 1.641657e-38
0.94660002 -0.11425584 1.3804812 1.641657e-38
0.93579024 -0.11279896 1.3628787 1.641657e-38
0.93705058 -0.11279896 1.3628787 1.6324375e-38
0.93831086 -0.11279896 1.3628787 1.6600601e-38
0.9395712 -0.11279896 1.3628787 1.6600599e-38
0.93585944 -0.11220284 1.3556762 1.6600599e-38
0.93711311 -0.11220284 1.3556762 1.6600599e-38
0.93836671 -0.11220284 1.3556762 1.659988e-38
0.93962044 -0.11220284 1.3556762 1.659988e-38
0.9408741 -0.11220284 1.3556762 1.659988e-38
0.94212776 -0.11220284 1.3556762 1.6692075e-38
0.94338137 -0.11220284 1.3556762 1.7060861e-38
0.94463509 -0.11220284 1.3556762 1.7060861e-38
0.95282441 -0.11302555 1.3656166 1.6968306e-38
0.95408726 -0.11302555 1.3656166 1.7060861e-38
0.9632706 -0.11396262 1.3769385 1.7245252e-38
0.96454394 -0.11396262 1.3769385 1.7245971e-38
0.96581727 -0.11396262 1.3769385 1.7245615e-38
0.97105449 -0.11442972 1.3825822 1.7245615e-38
0.97038639 -0.11420064 1.3798143 1.7245615e-38
0.97166234 -0.11420064 1.3798143 1.7245615e-38
0.97293836 -0.11420064 1.3798143 1.7338169e-38
0.97421438 -0.11420064 1.3798143 1.7430366e-38
0.97549033 -0.11420064 1.3798143 1.7430366e-38
0.96294171 -0.12061761 1.4412433 1.5586451e-38
0.96427453 -0.12061761 1.4412433 1.5586451e-38
0.96560729 -0.12061761 1.4412433 1.5493535e-38
0.96694005 -0.12061761 1.4412433 1.5677567e-38
0.96069175 -0.11967324 1.4299591 1.5862317e-38
0.96201414 -0.11967324 1.4299591 1.5954513e-38
0.96333647 -0.11967324 1.4299591 1.6322937e-38
0.9632777 -0.1195019 1.4279118 1.6046709e-38
0.96459818 -0.1195019 1.4279118 1.6046709e-38
0.96591866 -0.1195019 1.4279118 1.6047428e-38
0.96723908 -0.1195019 1.4279118 1.6139625e-38
0.96855956 -0.1195019 1.4279118 1.6324375e-38
0.97025901 -0.11954859 1.4284697 1.6324375e-38
0.95401829 -0.1173877 1.4026495 1.6140699e-38
0.95531535 -0.1173877 1.4026495 1.6232895e-38
0.95661247 -0.1173877 1.4026495 1.6232895e-38
0.95790958 -0.1173877 1.4026495 1.6232895e-38
0.94404685 -0.11553244 1.3804812 1.6232895e-38
0.94532341 -0.11553244 1.3804812 1.6232539e-38
0.94660002 -0.11553244 1.3804812 1.6232895e-38
0.93579024 -0.11405928 1.3628787 1.6324372e-38
0.93705058 -0.11405928 1.3628787 1.6232176e-38
0.93831086 -0.11405928 1.3628787 1.6416567e-38
0.9395712 -0.11405928 1.3628787 1.6416567e-38
0.93585944 -0.1134565 1.3556762 1.6600599e-38
0.93711311 -0.1134565 1.3556762 1.6600599e-38
0.93836671 -0.1134565 1.3556762 1.6600599e-38
0.93962044 -0.1134565 1.3556762 1.6416567e-38
0.9408741 -0.1134565 1.3556762 1.6416567e-38
0.94212776 -0.1134565 1.3556762 1.6416567e-38
0.94338137 -0.1134565 1.3556762 1.687719e-38
0.94463509 -0.1134565 1.3556762 1.687719e-38
0.95282441 -0.11428841 1.3656166 1.6784994e-38
0.95408726 -0.11428841 1.3656166 1.6692797e-38
0.9632706 -0.11523594 1.3769385 1.687719e-38
0.96454394 -0.11523594 1.3769385 1.706194e-38
0.96581727 -0.11523594 1.3769385 1.7061584e-38
0.97105449 -0.11570827 1.3825822 1.7338169e-38
0.97038639 -0.11547662 1.3798143 1.7061584e-38
0.97166234 -0.11547662 1.3798143 1.7061584e-38
0.97293836 -0.11547662 1.3798143 1.7245615e-38
0.97421438 -0.11547662 1.3798143 1.7338169e-38
0.97549033 -0.11547662 1.3798143 1.7430366e-38
0.96294171 -0.1219504 1.4412433 1.5494255e-38
0.96427453 -0.1219504 1.4412433 1.5494255e-38
0.96560729 -0.1219504 1.4412433 1.5493535e-38
0.96694005 -0.1219504 1.4412433 1.5493535e-38
0.96069175 -0.12099559 1.4299591 1.5769766e-38
0.96201414 -0.12099559 1.4299591 1.6046709e-38
0.96333647 -0.12099559 1.4299591 1.6415491e-38
0.9632777 -0.12082236 1.4279118 1.6046709e-38
0.96459818 -0.12082236 1.4279118 1.5954513e-38
0.96591866 -0.12082236 1.4279118 1.5955232e-38
0.96723908 -0.12082236 1.4279118 1.6139625e-38
0.96855956 -0.12082236 1.4279118 1.623182e-38
0.97025901 -0.12086956 1.4284697 1.623182e-38
0.95401829 -0.1186848 1.4026495 1.5956312e-38
0.95531535 -0.1186848 1.4026495 1.5956312e-38
0.95661247 -0.1186848 1.4026495 1.5956312e-38
0.95790958 -0.1186848 1.4026495 1.6140343e-38
0.94404685 -0.11680904 1.3804812 1.6140343e-38
0.94532341 -0.11680904 1.3804812 1.6232539e-38
0.94660002 -0.11680904 1.3804812 1.6232895e-38
0.93579024 -0.1153196 1.3628787 1.6416567e-38
0.93705058 -0.1153196 1.3628787 1.6416567e-38
0.93831086 -0.1153196 1.3628787 1.6600599e-38
0.9395712 -0.1153196 1.3628787 1.6600599e-38
0.93585944 -0.11471017 1.3556762 1.6600599e-38
0.93711311 -0.11471017 1.3556762 1.6600599e-38
0.93836671 -0.11471017 1.3556762 1.6600599e-38
0.93962044 -0.11471017 1.3556762 1.6692794e-38
0.9408741 -0.11471017 1.3556762 1.6692794e-38
0.94212776 -0.11471017 1.3556762 1.6600599e-38
0.94338137 -0.11471017 1.3556762 1.6692797e-38
0.94463509 -0.11471017 1.3556762 1.6784994e-38
0.95282441 -0.11555127 1.3656166 1.6877192e-38
0.95408726 -0.11555127 1.3656166 1.6877192e-38
0.9632706 -0.11650927 1.3769385 1.6784997e-38
0.96454394 -0.11650927 1.3769385 1.6784997e-38
0.96581727 -0.11650927 1.3769385 1.6969388e-38
0.97105449 -0.11698681 1.3825822 1.7245615e-38
0.97038639 -0.1167526 1.3798143 1.7061584e-38
0.97166234 -0.1167526 1.3798143 1.6969388e-38
0.97293836 -0.1167526 1.3798143 1.6969388e-38
0.97421438 -0.1167526 1.3798143 1.7245615e-38
0.97549033 -0.1167526 1.3798143 1.7430366e-38
0.95375299 -0.1252266 1.4639628 0
0.95510674 -0.1252266 1.4639628 1.0761972e-42
0.95646054 -0.1252266 1.4639628 2.3124437e-39
0.95781434 -0.1252266 1.4639628 1.0701883e-38
0.9591682 -0.1252266 1.4639628 1.4758491e-38
0.96066421 -0.12282161 1.4358472 1.5586451e-38
0.96199197 -0.12282161 1.4358472 1.5677567e-38
0.96331978 -0.12282161 1.4358472 1.5677567e-38
0.96339637 -0.12266231 1.4339848 1.5769766e-38
0.96472245 -0.12266231 1.4339848 1.6046709e-38
0.96604848 -0.12266231 1.4339848 1.5954513e-38
0.96737456 -0.12266231 1.4339848 1.6046709e-38
0.96870071 -0.12266231 1.4339848 1.6046709e-38
0.97072572 -0.12275068 1.4350179 1.6047428e-38
0.96360034 -0.12168332 1.4225399 1.6139625e-38
0.96491581 -0.12168332 1.4225399 1.623182e-38
0.96623135 -0.12168332 1.4225399 1.623182e-38
0.95890772 -0.12059682 1.4098382 1.5956312e-38
0.9602114 -0.12059682 1.4098382 1.6140343e-38
0.96151519 -0.12059682 1.4098382 1.6232539e-38
0.96281892 -0.12059682 1.4098382 1.6232539e-38
0.94264239 -0.11790997 1.3784275 1.6140699e-38
0.94391704 -0.11790997 1.3784275 1.6140699e-38
0.94519174 -0.11790997 1.3784275 1.6325091e-38
0.93988419 -0.11708994 1.3688411 1.6325091e-38
0.94115001 -0.11708994 1.3688411 1.6325091e-38
0.94241577 -0.11708994 1.3688411 1.6416567e-38
0.94368166 -0.11708994 1.3688411 1.6416567e-38
0.94494754 -0.11708994 1.3688411 1.6416567e-38
0.94728303 -0.11659838 1.3630943 1.6692797e-38
0.94854349 -0.11659838 1.3630943 1.6692797e-38
0.94980407 -0.11659838 1.3630943 1.6784994e-38
0.95106459 -0.11659838 1.3630943 1.6877192e-38
0.93016332 -0.11388499 1.3313735 1.6969388e-38
0.93139446 -0.11388499 1.3313735 1.6969388e-38
0.93262571 -0.11388499 1.3313735 1.6969388e-38
0.9338569 -0.11388499 1.3313735 1.7061584e-38
0.9350881 -0.11388499 1.3313735 1.7245615e-38
0.95989865 -0.11675296 1.3649015 1.6969388e-38
0.96116084 -0.11675296 1.3649015 1.6969388e-38
0.96242309 -0.11675296 1.3649015 1.6969388e-38
0.96368527 -0.11675296 1.3649015 1.7061584e-38
0.9649474 -0.11675296 1.3649015 1.7245615e-38
0.95375299 -0.12658042 1.4639628 9.5792763e-41
0.95510674 -0.12658042 1.4639628 1.7950633e-42
0.95646054 -0.12658042 1.4639628 1.0191868e-39
0.95781434 -0.12658042 1.4639628 4.5236969e-39
0.9591682 -0.12658042 1.4639628 9.6866522e-39
0.96066421 -0.12414941 1.4358472 1.5678649e-38
0.96199197 -0.12414941 1.4358472 1.5769766e-38
0.96331978 -0.12414941 1.4358472 1.567757e-38
0.96339637 -0.12398838 1.4339848 1.5769766e-38
0.96472245 -0.12398838 1.4339848 1.5954516e-38
0.96604848 -0.12398838 1.4339848 1.5861962e-38
0.96737456 -0.12398838 1.4339848 1.5861962e-38
0.96870071 -0.12398838 1.4339848 1.5954516e-38
0.97072572 -0.12407771 1.4350179 1.604743e-38
0.96360034 -0.12299882 1.4225399 1.6231823e-38
0.96491581 -0.12299882 1.4225399 1.641657e-38
0.96623135 -0.12299882 1.4225399 1.6324375e-38
0.95890772 -0.12190057 1.4098382 1.6232539e-38
0.9602114 -0.12190057 1.4098382 1.6232539e-38
0.96151519 -0.12190057 1.4098382 1.6325093e-38
0.96281892 -0.12190057 1.4098382 1.6232539e-38
0.94264239 -0.11918467 1.3784275 1.6140699e-38
0.94391704 -0.11918467 1.3784275 1.6140699e-38
0.94519174 -0.11918467 1.3784275 1.6325091e-38
0.93988419 -0.11835578 1.3688411 1.6417286e-38
0.94115001 -0.11835578 1.3688411 1.6325091e-38
0.94241577 -0.11835578 1.3688411 1.6416567e-38
0.94368166 -0.11835578 1.3688411 1.6416567e-38
0.94494754 -0.11835578 1.3688411 1.6416567e-38
0.94728303 -0.11785889 1.3630943 1.6692797e-38
0.94854349 -0.11785889 1.3630943 1.66928e-38
0.94980407 -0.11785889 1.3630943 1.6784997e-38
0.95106459 -0.11785889 1.3630943 1.6877192e-38
0.93016332 -0.11511618 1.3313735 1.6877192e-38
0.93139446 -0.11511618 1.3313735 1.6877192e-38
0.93262571 -0.11511618 1.3313735 1.6969388e-38
0.9338569 -0.11511618 1.3313735 1.7061584e-38
0.9350881 -0.11511618 1.3313735 1.7061584e-38
0.95989865 -0.11801516 1.3649015 1.7245615e-38
0.96116084 -0.11801516 1.3649015 1.6969388e-38
0.96242309 -0.11801516 1.3649015 1.6784997e-38
0.96368527 -0.11801516 1.3649015 1.6877192e-38
0.9649474 -0.11801516 1.3649015 1.7245615e-38
0.95375299 -0.12793422 1.4639628 4.6565008e-40
0.95510674 -0.12793422 1.4639628 1.4349296e-42
0.95646054 -0.12793422 1.4639628 5.7509289e-42
0.95781434 -0.12793422 1.4639628 1.1135376e-39
0.9591682 -0.12793422 1.4639628 3.510624e-39
0.96066421 -0.12547721 1.4358472 1.5679005e-38
0.96199197 -0.12547721 1.4358472 1.5678649e-38
0.96331978 -0.12547721 1.4358472 1.5586454e-38
0.96339637 -0.12531446 1.4339848 1.5678649e-38
0.96472245 -0.12531446 1.4339848 1.586268e-38
0.96604848 -0.12531446 1.4339848 1.6139627e-38
0.96737456 -0.12531446 1.4339848 1.604743e-38
0.96870071 -0.12531446 1.4339848 1.604743e-38
0.97072572 -0.12540475 1.4350179 1.6231823e-38
0.96360034 -0.12431431 1.4225399 1.6324019e-38
0.96491581 -0.12431431 1.4225399 1.623182e-38
0.96623135 -0.12431431 1.4225399 1.623182e-38
0.95890772 -0.12320432 1.4098382 1.6140343e-38
0.9602114 -0.12320432 1.4098382 1.6232539e-38
0.96151519 -0.12320432 1.4098382 1.6325093e-38
0.96281892 -0.12320432 1.4098382 1.6232539e-38
0.94264239 -0.12045937 1.3784275 1.595631e-38
0.94391704 -0.12045937 1.3784275 1.595631e-38
0.94519174 -0.12045937 1.3784275 1.6232895e-38
0.93988419 -0.11962162 1.3688411 1.6325091e-38
0.94115001 -0.11962162 1.3688411 1.6325091e-38
0.94241577 -0.11962162 1.3688411 1.6232895e-38
0.94368166 -0.11962162 1.3688411 1.6232895e-38
0.94494754 -0.11962162 1.3688411 1.6600599e-38
0.94728303 -0.11911942 1.3630943 1.641657e-38
0.94854349 -0.11911942 1.3630943 1.66928e-38
0.94980407 -0.11911942 1.3630943 1.6877192e-38
0.95106459 -0.11911942 1.3630943 1.6877192e-38
0.93016332 -0.11634737 1.3313735 1.6877192e-38
0.93139446 -0.11634737 1.3313735 1.6784997e-38
0.93262571 -0.11634737 1.3313735 1.6877192e-38
0.9338569 -0.11634737 1.3313735 1.6969388e-38
0.9350881 -0.11634737 1.3313735 1.6969388e-38
0.95989865 -0.11927735 1.3649015 1.6969388e-38
0.96116084 -0.11927735 1.3649015 1.6969388e-38
0.96242309 -0.11927735 1.3649015 1.6877192e-38
0.96368527 -0.11927735 1.3649015 1.7061584e-38
0.9649474 -0.11927735 1.3649015 1.7245615e-38
0.94217175 -0.12368028 1.4004649 1.5586454e-38
0.94346678 -0.12368028 1.4004649 1.5955235e-38
0.94476187 -0.12368028 1.4004649 1.6139627e-38
0.94605696 -0.12368028 1.4004649 1.6231823e-38
0.94735211 -0.12368028 1.4004649 1.6231823e-38
0.96135634 -0.12533724 1.4192272 1.6139627e-38
0.96266884 -0.12533724 1.4192272 1.6139625e-38
0.96676695 -0.12569945 1.4233285 1.623182e-38
0.9680832 -0.12569945 1.4233285 1.6325093e-38
0.95133233 -0.12335674 1.3968015 1.6232539e-38
0.95262408 -0.12335674 1.3968015 1.6140343e-38
0.95391577 -0.12335674 1.3968015 1.5956312e-38
0.94014436 -0.12141147 1.3747746 1.595631e-38
0.94141561 -0.12141147 1.3747746 1.6140699e-38
0.94268692 -0.12141147 1.3747746 1.6232895e-38
0.94395828 -0.12141147 1.3747746 1.6325091e-38
0.94522965 -0.12141147 1.3747746 1.6417286e-38
0.96252233 -0.1234666 1.3980454 1.6232895e-38
0.96381521 -0.1234666 1.3980454 1.6232895e-38
0.9651081 -0.1234666 1.3980454 1.6416567e-38
0.96862483 -0.12375073 1.4012626 1.6692794e-38
0.96992058 -0.12375073 1.4012626 1.6784994e-38
0.97121644 -0.12375073 1.4012626 1.6784994e-38
0.9725123 -0.12375073 1.4012626 1.6692797e-38
0.97380811 -0.12375073 1.4012626 1.6324375e-38
0.93307066 -0.11794606 1.3355348 1.6877192e-38
0.93430567 -0.11794606 1.3355348 1.6877192e-38
0.93554074 -0.11794606 1.3355348 1.6877192e-38
0.9367758 -0.11794606 1.3355348 1.71527e-38
0.93801081 -0.11794606 1.3355348 1.71527e-38
0.94548428 -0.11872946 1.3444054 1.71527e-38
0.94475603 -0.11848221 1.3416058 1.71527e-38
0.9459967 -0.11848221 1.3416058 1.71527e-38
0.94723737 -0.11848221 1.3416058 1.7245255e-38
0.94847798 -0.11848221 1.3416058 1.733745e-38
0.94971865 -0.11848221 1.3416058 1.7245255e-38
0.94217175 -0.12497536 1.4004649 1.5310943e-38
0.94346678 -0.12497536 1.4004649 1.558717e-38
0.94476187 -0.12497536 1.4004649 1.5864115e-38
0.94605696 -0.12497536 1.4004649 1.5864115e-38
0.94735211 -0.12497536 1.4004649 1.5679724e-38
0.96135634 -0.12664968 1.4192272 1.558717e-38
0.96266884 -0.12664968 1.4192272 1.5864115e-38
0.96676695 -0.12701568 1.4233285 1.6232539e-38
0.9680832 -0.12701568 1.4233285 1.6232539e-38
0.95133233 -0.12464844 1.3968015 1.5956312e-38
0.95262408 -0.12464844 1.3968015 1.5956312e-38
0.95391577 -0.12464844 1.3968015 1.6140343e-38
0.94014436 -0.12268279 1.3747746 1.6140699e-38
0.94141561 -0.12268279 1.3747746 1.6232895e-38
0.94268692 -0.12268279 1.3747746 1.6232895e-38
0.94395828 -0.12268279 1.3747746 1.6417286e-38
0.94522965 -0.12268279 1.3747746 1.6509482e-38
0.96252233 -0.12475945 1.3980454 1.6325091e-38
0.96381521 -0.12475945 1.3980454 1.6325091e-38
0.9651081 -0.12475945 1.3980454 1.6416567e-38
0.96862483 -0.12504655 1.4012626 1.6600599e-38
0.96992058 -0.12504655 1.4012626 1.6692797e-38
0.97121644 -0.12504655 1.4012626 1.6692797e-38
0.9725123 -0.12504655 1.4012626 1.6600601e-38
0.97380811 -0.12504655 1.4012626 1.641657e-38
0.93307066 -0.1191811 1.3355348 1.6784997e-38
0.93430567 -0.1191811 1.3355348 1.6784997e-38
0.93554074 -0.1191811 1.3355348 1.6784997e-38
0.9367758 -0.1191811 1.3355348 1.71527e-38
0.93801081 -0.1191811 1.3355348 1.733745e-38
0.94548428 -0.1199727 1.3444054 1.7429646e-38
0.94475603 -0.11972286 1.3416058 1.733745e-38
0.9459967 -0.11972286 1.3416058 1.71527e-38
0.94723737 -0.11972286 1.3416058 1.71527e-38
0.94847798 -0.11972286 1.3416058 1.733745e-38
0.94971865 -0.11972286 1.3416058 1.7245255e-38
0.94217175 -0.12627044 1.4004649 1.5310943e-38
0.94346678 -0.12627044 1.4004649 1.577192e-38
0.94476187 -0.12627044 1.4004649 1.577192e-38
0.94605696 -0.12627044 1.4004649 1.5679724e-38
0.94735211 -0.12627044 1.4004649 1.5494974e-38
0.96135634 -0.12796211 1.4192272 1.5494974e-38
0.96266884 -0.12796211 1.4192272 1.5679724e-38
0.96676695 -0.1283319 1.4233285 1.577192e-38
0.9680832 -0.1283319 1.4233285 1.5679724e-38
0.95133233 -0.12594013 1.3968015 1.5863759e-38
0.95262408 -0.12594013 1.3968015 1.6140343e-38
0.95391577 -0.12594013 1.3968015 1.6325093e-38
0.94014436 -0.12395412 1.3747746 1.6325093e-38
0.94141561 -0.12395412 1.3747746 1.6325093e-38
0.94268692 -0.12395412 1.3747746 1.6325091e-38
0.94395828 -0.12395412 1.3747746 1.6417286e-38
0.94522965 -0.12395412 1.3747746 1.6417286e-38
0.96252233 -0.12605229 1.3980454 1.6417286e-38
0.96381521 -0.12605229 1.3980454 1.6417286e-38
0.9651081 -0.12605229 1.3980454 1.6416567e-38
0.96862483 -0.12634237 1.4012626 1.6416567e-38
0.96992058 -0.12634237 1.4012626 1.6692797e-38
0.97121644 -0.12634237 1.4012626 1.6692797e-38
0.9725123 -0.12634237 1.4012626 1.6599883e-38
0.97380811 -0.12634237 1.4012626 1.641657e-38
0.93307066 -0.12041613 1.3355348 1.66928e-38
0.93430567 -0.12041613 1.3355348 1.66928e-38
0.93554074 -0.12041613 1.3355348 1.66928e-38
0.9367758 -0.12041613 1.3355348 1.7060508e-38
0.93801081 -0.12041613 1.3355348 1.7337094e-38
0.94548428 -0.12121593 1.3444054 1.742929e-38
0.94475603 -0.12096351 1.3416058 1.742929e-38
0.9459967 -0.12096351 1.3416058 1.7337094e-38
0.94723737 -0.12096351 1.3416058 1.7244899e-38
0.94847798 -0.12096351 1.3416058 1.7152703e-38
0.94971865 -0.12096351 1.3416058 1.6968312e-38
0.95452583 -0.12941609 1.4207813 1.5036151e-38
0.95583975 -0.12941609 1.4207813 1.5311659e-38
0.95715356 -0.12941609 1.4207813 1.5219466e-38
0.95846742 -0.12941609 1.4207813 1.5311662e-38
0.94827324 -0.12786436 1.4037457 1.5403857e-38
0.94957137 -0.12786436 1.4037457 1.5588607e-38
0.95086944 -0.12786436 1.4037457 1.5679724e-38
0.9471882 -0.12719569 1.3964047 1.558717e-38
0.94847953 -0.12719569 1.3964047 1.558717e-38
0.94977087 -0.12719569 1.3964047 1.5679724e-38
0.94417918 -0.12627515 1.3862988 1.577192e-38
0.94546121 -0.12627515 1.3862988 1.5957031e-38
0.94674319 -0.12627515 1.3862988 1.6233977e-38
0.94802523 -0.12627515 1.3862988 1.6509485e-38
0.94930714 -0.12627515 1.3862988 1.6600601e-38
0.95339245 -0.12664755 1.3903871 1.6325091e-38
0.95467824 -0.12664755 1.3903871 1.6325091e-38
0.95596403 -0.12664755 1.3903871 1.6416567e-38
0.9578644 -0.12672888 1.3912798 1.659988e-38
0.95915097 -0.12672888 1.3912798 1.6416567e-38
0.9604376 -0.12672888 1.3912798 1.6232895e-38
0.97249049 -0.12814757 1.4068549 1.6324372e-38
0.97379142 -0.12814757 1.4068549 1.6692078e-38
0.97509241 -0.12814757 1.4068549 1.6692078e-38
0.9763934 -0.12814757 1.4068549 1.6507687e-38
0.97769445 -0.12814757 1.4068549 1.6599883e-38
0.98292786 -0.12866232 1.412506 1.6784277e-38
0.98423409 -0.12866232 1.412506 1.6600604e-38
0.96675354 -0.12620971 1.3855802 1.6600604e-38
0.96803486 -0.12620971 1.3855802 1.66928e-38
0.96931612 -0.12620971 1.3855802 1.66928e-38
0.97059745 -0.12620971 1.3855802 1.6600604e-38
0.93605727 -0.12155786 1.3345104 1.6968312e-38
0.93729138 -0.12155786 1.3345104 1.7244899e-38
0.93852538 -0.12155786 1.3345104 1.742929e-38
0.93773943 -0.12129656 1.3316418 1.7337094e-38
0.93897086 -0.12129656 1.3316418 1.7152703e-38
0.94020236 -0.12129656 1.3316418 1.7244899e-38
0.94143373 -0.12129656 1.3316418 1.7061587e-38
0.94266516 -0.12129656 1.3316418 1.7152703e-38
0.95452583 -0.13072997 1.4207813 1.4760642e-38
0.95583975 -0.13072997 1.4207813 1.5036151e-38
0.95715356 -0.13072997 1.4207813 1.5127269e-38
0.95846742 -0.13072997 1.4207813 1.5219466e-38
0.94827324 -0.12916248 1.4037457 1.5403857e-38
0.94957137 -0.12916248 1.4037457 1.5496053e-38
0.95086944 -0.12916248 1.4037457 1.558717e-38
0.9471882 -0.12848702 1.3964047 1.5494974e-38
0.94847953 -0.12848702 1.3964047 1.5863036e-38
0.94977087 -0.12848702 1.3964047 1.577192e-38
0.94417918 -0.12755714 1.3862988 1.5679724e-38
0.94546121 -0.12755714 1.3862988 1.5772639e-38
0.94674319 -0.12755714 1.3862988 1.6418008e-38
0.94802523 -0.12755714 1.3862988 1.6417289e-38
0.94930714 -0.12755714 1.3862988 1.6415491e-38
0.95339245 -0.12793331 1.3903871 1.6324375e-38
0.95467824 -0.12793331 1.3903871 1.6232539e-38
0.95596403 -0.12793331 1.3903871 1.6507687e-38
0.9578644 -0.12801546 1.3912798 1.6874672e-38
0.95915097 -0.12801546 1.3912798 1.6415491e-38
0.9604376 -0.12801546 1.3912798 1.6140343e-38
0.97249049 -0.12944856 1.4068549 1.6324375e-38
0.97379142 -0.12944856 1.4068549 1.6690999e-38
0.97509241 -0.12944856 1.4068549 1.6507687e-38
0.9763934 -0.12944856 1.4068549 1.6507687e-38
0.97769445 -0.12944856 1.4068549 1.6783195e-38
0.98292786 -0.12996854 1.412506 1.696687e-38
0.98423409 -0.12996854 1.412506 1.6692081e-38
0.96675354 -0.12749101 1.3855802 1.6784997e-38
0.96803486 -0.12749101 1.3855802 1.6784997e-38
0.96931612 -0.12749101 1.3855802 1.6968312e-38
0.97059745 -0.12749101 1.3855802 1.6783921e-38
0.93605727 -0.12279195 1.3345104 1.7060508e-38
0.93729138 -0.12279195 1.3345104 1.6968312e-38
0.93852538 -0.12279195 1.3345104 1.7428211e-38
0.93773943 -0.122528 1.3316418 1.7428211e-38
0.93897086 -0.122528 1.3316418 1.7336015e-38
0.94020236 -0.122528 1.3316418 1.7152703e-38
0.94143373 -0.122528 1.3316418 1.7061587e-38
0.94266516 -0.122528 1.3316418 1.7244899e-38
0.95452583 -0.13204384 1.4207813 1.4299305e-38
0.95583975 -0.13204384 1.4207813 1.4575892e-38
0.95715356 -0.13204384 1.4207813 1.4759207e-38
0.95846742 -0.13204384 1.4207813 1.4943957e-38
0.94827324 -0.13046059 1.4037457 1.5404576e-38
0.94957137 -0.13046059 1.4037457 1.5588607e-38
0.95086944 -0.13046059 1.4037457 1.5494974e-38
0.9471882 -0.12977834 1.3964047 1.5127269e-38
0.94847953 -0.12977834 1.3964047 1.5403857e-38
0.94977087 -0.12977834 1.3964047 1.577192e-38
0.94417918 -0.12883912 1.3862988 1.558717e-38
0.94546121 -0.12883912 1.3862988 1.5956312e-38
0.94674319 -0.12883912 1.3862988 1.6232539e-38
0.94802523 -0.12883912 1.3862988 1.6600601e-38
0.94930714 -0.12883912 1.3862988 1.6599883e-38
0.95339245 -0.12921907 1.3903871 1.6139625e-38
0.95467824 -0.12921907 1.3903871 1.623182e-38
0.95596403 -0.12921907 1.3903871 1.6692078e-38
0.9578644 -0.12930204 1.3912798 1.6414772e-38
0.95915097 -0.12930204 1.3912798 1.6507687e-38
0.9604376 -0.12930204 1.3912798 1.6324375e-38
0.97249049 -0.13074955 1.4068549 1.6415491e-38
0.97379142 -0.13074955 1.4068549 1.6322217e-38
0.97509241 -0.13074955 1.4068549 1.6507687e-38
0.9763934 -0.13074955 1.4068549 1.6599883e-38
0.97769445 -0.13074955 1.4068549 1.6783198e-38
0.98292786 -0.13127476 1.412506 1.7150901e-38
0.98423409 -0.13127476 1.412506 1.6783198e-38
0.96675354 -0.12877233 1.3855802 1.6692081e-38
0.96803486 -0.12877233 1.3855802 1.6783921e-38
0.96931612 -0.12877233 1.3855802 1.6691725e-38
0.97059745 -0.12877233 1.3855802 1.6692444e-38
0.93605727 -0.12402605 1.3345104 1.6969391e-38
0.93729138 -0.12402605 1.3345104 1.6877195e-38
0.93852538 -0.12402605 1.3345104 1.6877195e-38
0.93773943 -0.12375944 1.3316418 1.7060508e-38
0.93897086 -0.12375944 1.3316418 1.7336015e-38
0.94020236 -0.12375944 1.3316418 1.7336015e-38
0.94143373 -0.12375944 1.3316418 1.7152703e-38
0.94266516 -0.12375944 1.3316418 1.7428211e-38
0.94601303 -0.13090706 1.3946723 1.4758491e-38
0.94730282 -0.13090706 1.3946723 1.4482624e-38
0.94859254 -0.13090706 1.3946723 1.4666295e-38
0.94988221 -0.13090706 1.3946723 1.5309865e-38
0.95117193 -0.13090706 1.3946723 1.586268e-38
0.95882666 -0.13178186 1.4039924 1.5861962e-38
0.96012503 -0.13178186 1.4039924 1.5954516e-38
0.96799672 -0.13268287 1.4135917 1.632294e-38
0.96930397 -0.13268287 1.4135917 1.6046712e-38
0.95767993 -0.13091516 1.3947587 1.6138907e-38
0.95896977 -0.13091516 1.3947587 1.632294e-38
0.9602595 -0.13091516 1.3947587 1.632294e-38
0.96154934 -0.13091516 1.3947587 1.6138907e-38
0.93840802 -0.12759332 1.359368 1.6507331e-38
0.93966508 -0.12759332 1.359368 1.6599885e-38
0.94092208 -0.12759332 1.359368 1.6875393e-38
0.9421792 -0.12759332 1.359368 1.6506612e-38
0.94343632 -0.12759332 1.359368 1.6875393e-38
0.94469339 -0.12759332 1.359368 1.7150901e-38
0.94595039 -0.12759332 1.359368 1.7242381e-38
0.94720751 -0.12759332 1.359368 1.6782123e-38
0.95859826 -0.12895656 1.3738918 1.6966873e-38
0.94287497 -0.12667347 1.349568 1.7059789e-38
0.94412291 -0.12667347 1.349568 1.6782844e-38
0.94537097 -0.12667347 1.349568 1.6600251e-38
0.94661897 -0.12667347 1.349568 1.6601331e-38
0.94786704 -0.12667347 1.349568 1.6509134e-38
0.94945484 -0.12671883 1.3500513 1.6601331e-38
0.9378137 -0.12500077 1.3317473 1.7060508e-38
0.93904525 -0.12500077 1.3317473 1.7427492e-38
0.9402768 -0.12500077 1.3317473 1.7427492e-38
0.94150829 -0.12500077 1.3317473 1.7427492e-38
0.94273984 -0.12500077 1.3317473 1.7427492e-38
0.94601303 -0.13219678 1.3946723 1.2914578e-38
0.94730282 -0.13219678 1.3946723 1.3098609e-38
0.94859254 -0.13219678 1.3946723 1.3190086e-38
0.94988221 -0.13219678 1.3946723 1.355815e-38
0.95117193 -0.13219678 1.3946723 1.438791e-38
0.95882666 -0.13308021 1.4039924 1.4663777e-38
0.96012503 -0.13308021 1.4039924 1.4663777e-38
0.96799672 -0.13399011 1.4135917 1.4848168e-38
0.96930397 -0.13399011 1.4135917 1.5032201e-38
0.95767993 -0.13220498 1.3947587 1.5309146e-38
0.95896977 -0.13220498 1.3947587 1.5769766e-38
0.9602595 -0.13220498 1.3947587 1.5769047e-38
0.96154934 -0.13220498 1.3947587 1.6505532e-38
0.93840802 -0.1288504 1.359368 1.7057987e-38
0.93966508 -0.1288504 1.359368 1.7426049e-38
0.94092208 -0.1288504 1.359368 1.7056189e-38
0.9421792 -0.1288504 1.359368 1.7056189e-38
0.94343632 -0.1288504 1.359368 1.7148384e-38
0.94469339 -0.1288504 1.359368 1.7057271e-38
0.94595039 -0.1288504 1.359368 1.7333497e-38
0.94720751 -0.1288504 1.359368 1.7333497e-38
0.95859826 -0.13022707 1.3738918 1.7150185e-38
0.94287497 -0.12792149 1.349568 1.7242381e-38
0.94412291 -0.12792149 1.349568 1.6782126e-38
0.94537097 -0.12792149 1.349568 1.6599532e-38
0.94661897 -0.12792149 1.349568 1.6692447e-38
0.94786704 -0.12792149 1.349568 1.6601331e-38
0.94945484 -0.1279673 1.3500513 1.6601331e-38
0.9378137 -0.12623231 1.3317473 1.7060508e-38
0.93904525 -0.12623231 1.3317473 1.7336015e-38
0.9402768 -0.12623231 1.3317473 1.7336015e-38
0.94150829 -0.12623231 1.3317473 1.7151984e-38
0.94273984 -0.12623231 1.3317473 1.7427492e-38
0.94601303 -0.13348651 1.3946723 1.1253978e-38
0.94730282 -0.13348651 1.3946723 1.1069587e-38
0.94859254 -0.13348651 1.3946723 1.0885195e-38
0.94988221 -0.13348651 1.3946723 1.0976675e-38
0.95117193 -0.13348651 1.3946723 1.1067792e-38
0.95882666 -0.13437855 1.4039924 1.1251464e-38
0.96012503 -0.13437855 1.4039924 1.1527691e-38
0.96799672 -0.13529733 1.4135917 1.1619886e-38
0.96930397 -0.13529733 1.4135917 1.1713161e-38
0.95767993 -0.13349478 1.3947587 1.1989748e-38
0.95896977 -0.13349478 1.3947587 1.2542203e-38
0.9602595 -0.13349478 1.3947587 1.3462361e-38
0.96154934 -0.13349478 1.3947587 1.4198127e-38
0.93840802 -0.13010748 1.359368 1.5487068e-38
0.93966508 -0.13010748 1.359368 1.5947326e-38
0.94092208 -0.13010748 1.359368 1.6867484e-38
0.9421792 -0.13010748 1.359368 1.69604e-38
0.94343632 -0.13010748 1.359368 1.7421377e-38
0.94469339 -0.13010748 1.359368 1.7054752e-38
0.94595039 -0.13010748 1.359368 1.7147312e-38
0.94720751 -0.13010748 1.359368 1.7517172e-38
0.95859826 -0.13149758 1.3738918 1.7885596e-38
0.94287497 -0.12916949 1.349568 1.7702284e-38
0.94412291 -0.12916949 1.349568 1.73335e-38
0.94537097 -0.12916949 1.349568 1.6874321e-38
0.94661897 -0.12916949 1.349568 1.6507337e-38
0.94786704 -0.12916949 1.349568 1.6600251e-38
