# .PCD v0.7 - Point Cloud Data file format
VERSION 0.7
FIELDS x y z rgb
SIZE 4 4 4 4
TYPE F F F F
COUNT 1 1 1 1
WIDTH 995
HEIGHT 1
VIEWPOINT 0 0 0 1 0 0 0
POINTS 995
DATA ascii
-0.19550666 0.019350488 1.4431088 2.3509886e-38
-0.19417214 0.019350488 1.4431088 2.3509886e-38
-0.19283763 0.019350488 1.4431088 2.3509886e-38
-0.19151433 0.019351622 1.4431933 2.3509886e-38
-0.19017974 0.019351622 1.4431933 2.3509886e-38
-0.18884514 0.019351622 1.4431933 2.3509886e-38
-0.18768384 0.019369505 1.444527 2.3509886e-38
-0.18634801 0.019369505 1.444527 2.3509886e-38
-0.18501218 0.019369505 1.444527 2.3509886e-38
-0.18377252 0.019379647 1.4452834 2.3509886e-38
-0.18243599 0.019379647 1.4452834 2.3509886e-38
-0.18109947 0.019379647 1.4452834 2.3509886e-38
-0.1798853 0.019392839 1.4462671 2.3509886e-38
-0.17854786 0.019392839 1.4462671 2.3509886e-38
-0.17721042 0.019392839 1.4462671 2.3509886e-38
-0.17619248 0.019428069 1.4488945 2.3509886e-38
-0.17485261 0.019428069 1.4488945 2.3509886e-38
-0.17351276 0.019428069 1.4488945 2.3509886e-38
-0.17275622 0.019493893 1.4538035 2.3509886e-38
-0.17141181 0.019493893 1.4538035 2.3509886e-38
-0.17006741 0.019493893 1.4538035 2.3509886e-38
-0.16910453 0.019537974 1.457091 2.3509886e-38
-0.16775709 0.019537974 1.457091 2.3509886e-38
-0.16679634 0.019583376 1.460477 2.3509886e-38
-0.16544577 0.019583376 1.460477 2.3509886e-38
-0.16409519 0.019583376 1.460477 2.3509886e-38
-0.16286272 0.019597588 1.4615369 2.3509886e-38
-0.16151117 0.019597588 1.4615369 2.3509886e-38
-0.1601596 0.019597588 1.4615369 2.3509886e-38
-0.15923274 0.019649997 1.4654454 2.3509886e-38
-0.15787756 0.019649997 1.4654454 2.3509886e-38
-0.15652239 0.019649997 1.4654454 2.3509886e-38
-0.15550394 0.019692639 1.4686255 2.3509886e-38
-0.15414584 0.019692639 1.4686255 2.3509886e-38
-0.15278772 0.019692639 1.4686255 2.3509886e-38
-0.15245275 0.019825695 1.4785484 2.3509886e-38
-0.15108547 0.019825695 1.4785484 2.3509886e-38
-0.15130949 0.020036416 1.4942635 2.3509886e-38
-0.14992768 0.020036416 1.4942635 2.3509886e-38
-0.14854585 0.020036416 1.4942635 2.3509886e-38
-0.12257577 0.020083036 1.4977403 2.3509886e-38
-0.12119073 0.020083036 1.4977403 2.3509886e-38
-0.11980569 0.020083036 1.4977403 2.3509886e-38
-0.11842066 0.020083036 1.4977403 2.3509886e-38
-0.11703562 0.020083036 1.4977403 2.3509886e-38
-0.25018638 0.018608904 1.4906036 1.9451846e-38
-0.24880794 0.018608904 1.4906036 2.2495381e-38
-0.24746856 0.018611841 1.4908389 2.3509886e-38
-0.24602702 0.018607086 1.4904579 2.3509886e-38
-0.24464871 0.018607086 1.4904579 2.3509886e-38
-0.24327041 0.018607086 1.4904579 2.3509886e-38
-0.24189211 0.018607086 1.4904579 2.3509886e-38
-0.2405138 0.018607086 1.4904579 2.3509886e-38
-0.23915312 0.018608455 1.4905677 2.3509886e-38
-0.23761448 0.018595915 1.4895632 2.3509886e-38
-0.236237 0.018595915 1.4895632 2.3509886e-38
-0.23485953 0.018595915 1.4895632 2.3509886e-38
-0.23310997 0.018566281 1.4871894 2.3509886e-38
-0.23173469 0.018566281 1.4871894 2.3509886e-38
-0.23035941 0.018566281 1.4871894 2.3509886e-38
-0.2289511 0.018563602 1.4869748 2.341805e-38
-0.22757602 0.018563602 1.4869748 2.3509886e-38
-0.22620092 0.018563602 1.4869748 2.3509886e-38
-0.22482584 0.018563602 1.4869748 2.341805e-38
-0.22345077 0.018563602 1.4869748 2.2773046e-38
-0.2222589 0.018578917 1.4882016 2.1942926e-38
-0.22088268 0.018578917 1.4882016 2.1572704e-38
-0.21950647 0.018578917 1.4882016 2.2125159e-38
-0.21876937 0.018633353 1.4925621 2.2485309e-38
-0.21738912 0.018633353 1.4925621 1.5653842e-38
-0.21600887 0.018633353 1.4925621 8.2695597e-39
-0.20245503 0.018040547 1.4450773 1.9437822e-38
-0.20075469 0.018007895 1.4424618 2.3506657e-38
-0.19942077 0.018007895 1.4424618 2.3509886e-38
-0.19808686 0.018007895 1.4424618 2.3509886e-38
-0.19645947 0.017981036 1.4403104 2.3509886e-38
-0.19512755 0.017981036 1.4403104 2.3509886e-38
-0.19379561 0.017981036 1.4403104 2.3509886e-38
-0.19246368 0.017981036 1.4403104 2.3509886e-38
-0.19113176 0.017981036 1.4403104 2.3509886e-38
-0.18995081 0.017995339 1.4414561 2.3509886e-38
-0.18861781 0.017995339 1.4414561 2.3509886e-38
-0.18733887 0.018000532 1.441872 2.3509886e-38
-0.1860055 0.018000532 1.441872 2.3509886e-38
-0.18467212 0.018000532 1.441872 2.3509886e-38
-0.18359329 0.018025521 1.4438738 2.3509886e-38
-0.18225805 0.018025521 1.4438738 2.3509886e-38
-0.18092284 0.018025521 1.4438738 2.3509886e-38
-0.179655 0.018032286 1.4444156 2.3509886e-38
-0.17831928 0.018032286 1.4444156 2.3509886e-38
-0.17698355 0.018032286 1.4444156 2.3509886e-38
-0.17611997 0.018080758 1.4482982 2.3509886e-38
-0.17478065 0.018080758 1.4482982 2.3509886e-38
-0.17344134 0.018080758 1.4482982 2.3509886e-38
-0.17251946 0.018124612 1.4518111 2.3509886e-38
-0.1711769 0.018124612 1.4518111 2.3509886e-38
-0.16983433 0.018124612 1.4518111 2.3509886e-38
-0.16896589 0.018175613 1.4558964 2.3509886e-38
-0.16761956 0.018175613 1.4558964 2.3509886e-38
-0.16651858 0.018202435 1.4580449 2.3509886e-38
-0.16517025 0.018202435 1.4580449 2.3509886e-38
-0.16382192 0.018202435 1.4580449 2.3509886e-38
-0.16280754 0.018239848 1.4610417 2.3509886e-38
-0.16145644 0.018239848 1.4610417 2.3509886e-38
-0.16010533 0.018239848 1.4610417 2.3509886e-38
-0.1591586 0.018286308 1.4647632 2.3509886e-38
-0.15780407 0.018286308 1.4647632 2.3509886e-38
-0.15644953 0.018286308 1.4647632 2.3509886e-38
-0.1556039 0.018346312 1.4695696 2.3509886e-38
-0.15424491 0.018346312 1.4695696 2.3509886e-38
-0.15288593 0.018346312 1.4695696 2.3509886e-38
-0.1522558 0.01843456 1.4766383 2.3509886e-38
-0.15089028 0.01843456 1.4766383 2.3509886e-38
-0.1509012 0.018604256 1.4902314 2.3509886e-38
-0.14952311 0.018604256 1.4902314 2.3509886e-38
-0.14814501 0.018604256 1.4902314 2.3509886e-38
-0.12649803 0.018663643 1.4949883 2.3509886e-38
-0.12511553 0.018663643 1.4949883 2.3509886e-38
-0.12373304 0.018663643 1.4949883 2.3509886e-38
-0.12217928 0.018637519 1.4928957 2.3509886e-38
-0.12079873 0.018637519 1.4928957 2.3509886e-38
-0.11941817 0.018637519 1.4928957 2.3509886e-38
-0.11803762 0.018637519 1.4928957 2.3509886e-38
-0.11665706 0.018637519 1.4928957 2.3509886e-38
-0.2499385 0.017213395 1.4891268 1.9267815e-38
-0.24856144 0.017213395 1.4891268 2.2495381e-38
-0.24718437 0.017213395 1.4891268 2.3509886e-38
-0.24572788 0.017207833 1.4886457 2.3509886e-38
-0.24435125 0.017207833 1.4886457 2.3509886e-38
-0.24297462 0.017207833 1.4886457 2.3509886e-38
-0.24157353 0.017206091 1.4884949 2.3509886e-38
-0.24019703 0.017206091 1.4884949 2.3509886e-38
-0.23882055 0.017206091 1.4884949 2.3509886e-38
-0.23744394 0.017206082 1.4884942 2.3509886e-38
-0.23606746 0.017206082 1.4884942 2.3509886e-38
-0.23469098 0.017206082 1.4884942 2.3509886e-38
-0.23310138 0.017190367 1.4871346 2.3509886e-38
-0.23172615 0.017190367 1.4871346 2.3509886e-38
-0.23035091 0.017190367 1.4871346 2.3509886e-38
-0.22894707 0.017188217 1.4869487 2.3509886e-38
-0.22757201 0.017188217 1.4869487 2.3509886e-38
-0.22619696 0.017188217 1.4869487 2.3509886e-38
-0.2248219 0.017188217 1.4869487 2.341805e-38
-0.22344685 0.017188217 1.4869487 2.2773046e-38
-0.22224157 0.017201358 1.4880855 2.1942926e-38
-0.22086546 0.017201358 1.4880855 2.1480508e-38
-0.21948934 0.017201358 1.4880855 2.2031888e-38
-0.21883823 0.017258536 1.4930319 2.2763338e-38
-0.21681207 0.017207308 1.4886001 1.6671234e-38
-0.21543549 0.017207308 1.4886001 8.179885e-39
-0.21405891 0.017207308 1.4886001 8.0815643e-39
-0.21268232 0.017207308 1.4886001 8.3570652e-39
-0.2054615 0.016731393 1.4474288 9.3672626e-39
-0.20412299 0.016731393 1.4474288 1.232617e-38
-0.20278448 0.016731393 1.4474288 2.3498029e-38
-0.20075469 0.016673977 1.4424618 2.3509168e-38
-0.19942077 0.016673977 1.4424618 2.3509886e-38
-0.19808686 0.016673977 1.4424618 2.3509886e-38
-0.19645947 0.016649107 1.4403104 2.3509886e-38
-0.19512755 0.016649107 1.4403104 2.3509886e-38
-0.19379561 0.016649107 1.4403104 2.3509886e-38
-0.19246368 0.016649107 1.4403104 2.3509886e-38
-0.19113176 0.016649107 1.4403104 2.3509886e-38
-0.18995081 0.016662352 1.4414561 2.3509886e-38
-0.18861781 0.016662352 1.4414561 2.3509886e-38
-0.18733887 0.016667159 1.441872 2.3509886e-38
-0.1860055 0.016667159 1.441872 2.3509886e-38
-0.18467212 0.016667159 1.441872 2.3509886e-38
-0.18359329 0.016690297 1.4438738 2.3509886e-38
-0.18225805 0.016690297 1.4438738 2.3509886e-38
-0.18092284 0.016690297 1.4438738 2.3509886e-38
-0.179655 0.016696561 1.4444156 2.3509886e-38
-0.17831928 0.016696561 1.4444156 2.3509886e-38
-0.17698355 0.016696561 1.4444156 2.3509886e-38
-0.17611997 0.016741442 1.4482982 2.3509886e-38
-0.17478065 0.016741442 1.4482982 2.3509886e-38
-0.17344134 0.016741442 1.4482982 2.3509886e-38
-0.17251946 0.016782049 1.4518111 2.3509886e-38
-0.1711769 0.016782049 1.4518111 2.3509886e-38
-0.16983433 0.016782049 1.4518111 2.3509886e-38
-0.16896589 0.016829273 1.4558964 2.3509886e-38
-0.16761956 0.016829273 1.4558964 2.3509886e-38
-0.16651858 0.016854107 1.4580449 2.3509886e-38
-0.16517025 0.016854107 1.4580449 2.3509886e-38
-0.16382192 0.016854107 1.4580449 2.3509886e-38
-0.16280754 0.016888749 1.4610417 2.3509886e-38
-0.16145644 0.016888749 1.4610417 2.3509886e-38
-0.16010533 0.016888749 1.4610417 2.3509886e-38
-0.1591586 0.016931767 1.4647632 2.3509886e-38
-0.15780407 0.016931767 1.4647632 2.3509886e-38
-0.15644953 0.016931767 1.4647632 2.3509886e-38
-0.1556039 0.016987326 1.4695696 2.3509886e-38
-0.15424491 0.016987326 1.4695696 2.3509886e-38
-0.15288593 0.016987326 1.4695696 2.3509886e-38
-0.1522558 0.017069036 1.4766383 2.3509886e-38
-0.15089028 0.017069036 1.4766383 2.3509886e-38
-0.1509012 0.017226163 1.4902314 2.3509886e-38
-0.14952311 0.017226163 1.4902314 2.3509886e-38
-0.14814501 0.017226163 1.4902314 2.3509886e-38
-0.12649803 0.01728115 1.4949883 2.3509886e-38
-0.12511553 0.01728115 1.4949883 2.3509886e-38
-0.12373304 0.01728115 1.4949883 2.3509886e-38
-0.12217928 0.017256962 1.4928957 2.3509886e-38
-0.12079873 0.017256962 1.4928957 2.3509886e-38
-0.11941817 0.017256962 1.4928957 2.3509886e-38
-0.11803762 0.017256962 1.4928957 2.3509886e-38
-0.11665706 0.017256962 1.4928957 2.3509886e-38
-0.2499385 0.015836325 1.4891268 1.9360729e-38
-0.24856144 0.015836325 1.4891268 2.2679772e-38
-0.24718437 0.015836325 1.4891268 2.3509886e-38
-0.24572788 0.015831208 1.4886457 2.3509886e-38
-0.24435125 0.015831208 1.4886457 2.3509886e-38
-0.24297462 0.015831208 1.4886457 2.3509886e-38
-0.24157353 0.015829604 1.4884949 2.3509886e-38
-0.24019703 0.015829604 1.4884949 2.3509886e-38
-0.23882055 0.015829604 1.4884949 2.3509886e-38
-0.23744394 0.015829595 1.4884942 2.3509886e-38
-0.23606746 0.015829595 1.4884942 2.3509886e-38
-0.23469098 0.015829595 1.4884942 2.3509886e-38
-0.23310138 0.015815137 1.4871346 2.3509886e-38
-0.23172615 0.015815137 1.4871346 2.3509886e-38
-0.23035091 0.015815137 1.4871346 2.3509886e-38
-0.22894707 0.015813161 1.4869487 2.3509886e-38
-0.22757201 0.015813161 1.4869487 2.3509886e-38
-0.22619696 0.015813161 1.4869487 2.341805e-38
-0.2248219 0.015813161 1.4869487 2.3325856e-38
-0.22344685 0.015813161 1.4869487 2.2865242e-38
-0.22224157 0.015825249 1.4880855 2.1942926e-38
-0.22086546 0.015825249 1.4880855 2.1204642e-38
-0.21948934 0.015825249 1.4880855 2.0649673e-38
-0.21883823 0.015877852 1.4930319 2.2210885e-38
-0.21681207 0.015830724 1.4886001 1.879461e-38
-0.21543549 0.015830724 1.4886001 9.1954761e-39
-0.21405891 0.015830724 1.4886001 7.1632009e-39
-0.21268232 0.015830724 1.4886001 6.9795285e-39
-0.2054615 0.015392881 1.4474288 8.63295e-39
-0.20412299 0.015392881 1.4474288 1.7588155e-38
-0.20278448 0.015392881 1.4474288 2.3504863e-38
-0.20075469 0.015340059 1.4424618 2.3509886e-38
-0.19942077 0.015340059 1.4424618 2.3325856e-38
-0.19808686 0.015340059 1.4424618 2.3509886e-38
-0.19645947 0.015317178 1.4403104 2.3509886e-38
-0.19512755 0.015317178 1.4403104 2.3509886e-38
-0.19379561 0.015317178 1.4403104 2.3509886e-38
-0.19246368 0.015317178 1.4403104 2.3509886e-38
-0.19113176 0.015317178 1.4403104 2.3509886e-38
-0.18995081 0.015329363 1.4414561 2.3509886e-38
-0.18861781 0.015329363 1.4414561 2.3509886e-38
-0.18733887 0.015333786 1.441872 2.3509886e-38
-0.1860055 0.015333786 1.441872 2.3509886e-38
-0.18467212 0.015333786 1.441872 2.3509886e-38
-0.18359329 0.015355074 1.4438738 2.3509886e-38
-0.18225805 0.015355074 1.4438738 2.3509886e-38
-0.18092284 0.015355074 1.4438738 2.3509886e-38
-0.179655 0.015360836 1.4444156 2.3509886e-38
-0.17831928 0.015360836 1.4444156 2.3509886e-38
-0.17698355 0.015360836 1.4444156 2.3509886e-38
-0.17611997 0.015402126 1.4482982 2.3509886e-38
-0.17478065 0.015402126 1.4482982 2.3509886e-38
-0.17344134 0.015402126 1.4482982 2.3509886e-38
-0.17251946 0.015439484 1.4518111 2.3509886e-38
-0.1711769 0.015439484 1.4518111 2.3509886e-38
-0.16983433 0.015439484 1.4518111 2.3509886e-38
-0.16896589 0.01548293 1.4558964 2.3509886e-38
-0.16761956 0.01548293 1.4558964 2.3509886e-38
-0.16651858 0.015505779 1.4580449 2.3509886e-38
-0.16517025 0.015505779 1.4580449 2.3509886e-38
-0.16382192 0.015505779 1.4580449 2.3509886e-38
-0.16280754 0.015537648 1.4610417 2.3509886e-38
-0.16145644 0.015537648 1.4610417 2.3509886e-38
-0.16010533 0.015537648 1.4610417 2.3509886e-38
-0.1591586 0.015577225 1.4647632 2.3509886e-38
-0.15780407 0.015577225 1.4647632 2.3509886e-38
-0.15644953 0.015577225 1.4647632 2.3509886e-38
-0.1556039 0.01562834 1.4695696 2.3509886e-38
-0.15424491 0.01562834 1.4695696 2.3509886e-38
-0.15288593 0.01562834 1.4695696 2.3509886e-38
-0.1522558 0.015703512 1.4766383 2.3509886e-38
-0.15089028 0.015703512 1.4766383 2.3509886e-38
-0.1509012 0.01584807 1.4902314 2.3509886e-38
-0.14952311 0.01584807 1.4902314 2.3509886e-38
-0.14814501 0.01584807 1.4902314 2.3509886e-38
-0.12649803 0.015898658 1.4949883 2.3509886e-38
-0.12511553 0.015898658 1.4949883 2.3509886e-38
-0.12373304 0.015898658 1.4949883 2.3509886e-38
-0.12217928 0.015876405 1.4928957 2.3509886e-38
-0.12079873 0.015876405 1.4928957 2.3509886e-38
-0.11941817 0.015876405 1.4928957 2.3509886e-38
-0.11803762 0.015876405 1.4928957 2.3509886e-38
-0.11665706 0.015876405 1.4928957 2.3509886e-38
-0.2499385 0.014459252 1.4891268 1.9453284e-38
-0.24856144 0.014459252 1.4891268 2.2772326e-38
-0.24718437 0.014459252 1.4891268 2.3509886e-38
-0.24572788 0.01445458 1.4886457 2.3509886e-38
-0.24435125 0.01445458 1.4886457 2.3509886e-38
-0.24297462 0.01445458 1.4886457 2.3509886e-38
-0.24157353 0.014453116 1.4884949 2.3509886e-38
-0.24019703 0.014453116 1.4884949 2.3509886e-38
-0.23882055 0.014453116 1.4884949 2.3509886e-38
-0.23666172 0.014405495 1.4835905 2.3509886e-38
-0.23528977 0.014405495 1.4835905 2.3509886e-38
-0.2339178 0.014405495 1.4835905 2.3509886e-38
-0.23239441 0.014396113 1.4826243 2.3509886e-38
-0.23102336 0.014396113 1.4826243 2.3509886e-38
-0.2296523 0.014396113 1.4826243 2.3509886e-38
-0.22828123 0.014396113 1.4826243 2.3509886e-38
-0.22691017 0.014396113 1.4826243 2.3509886e-38
-0.22560391 0.014400249 1.4830502 2.341805e-38
-0.22423247 0.014400249 1.4830502 2.3325856e-38
-0.22286101 0.014400249 1.4830502 2.2865242e-38
-0.22169341 0.014413502 1.4844152 2.2035125e-38
-0.22032069 0.014413502 1.4844152 2.1204645e-38
-0.21894798 0.014413502 1.4844152 2.046528e-38
-0.21805628 0.014445367 1.4876969 2.1936096e-38
-0.21346328 0.014230885 1.4656078 1.9533974e-38
-0.21210796 0.014230885 1.4656078 1.0120309e-38
-0.21075264 0.014230885 1.4656078 7.0713682e-39
-0.20939732 0.014230885 1.4656078 6.244846e-39
-0.20452654 0.013990414 1.4408423 8.0887684e-39
-0.20319413 0.013990414 1.4408423 2.0544529e-38
-0.20186171 0.013990414 1.4408423 2.3509886e-38
-0.19986169 0.013943839 1.4360455 2.3509886e-38
-0.19853371 0.013943839 1.4360455 2.341805e-38
-0.19720572 0.013943839 1.4360455 2.3509886e-38
-0.19575831 0.013935337 1.4351699 2.3509886e-38
-0.19443114 0.013935337 1.4351699 2.3509886e-38
-0.19310395 0.013935337 1.4351699 2.3509886e-38
-0.19177678 0.013935337 1.4351699 2.3509886e-38
-0.19044961 0.013935337 1.4351699 2.3509886e-38
-0.18927543 0.01394661 1.4363309 2.3509886e-38
-0.18794718 0.01394661 1.4363309 2.3509886e-38
-0.18661892 0.01394661 1.4363309 2.3509886e-38
-0.18547463 0.013960456 1.4377569 2.3509886e-38
-0.18414506 0.013960456 1.4377569 2.3509886e-38
-0.18305945 0.013979085 1.4396755 2.3509886e-38
-0.18172811 0.013979085 1.4396755 2.3509886e-38
-0.18039677 0.013979085 1.4396755 2.3509886e-38
-0.17914547 0.013985333 1.4403189 2.3509886e-38
-0.17781353 0.013985333 1.4403189 2.3509886e-38
-0.17648159 0.013985333 1.4403189 2.3509886e-38
-0.17553279 0.014015926 1.4434696 2.3509886e-38
-0.17419794 0.014015926 1.4434696 2.3509886e-38
-0.1728631 0.014015926 1.4434696 2.3509886e-38
-0.1720309 0.014056999 1.4476997 2.3509886e-38
-0.17069213 0.014056999 1.4476997 2.3509886e-38
-0.16935338 0.014056999 1.4476997 2.3509886e-38
-0.16848116 0.014096033 1.4517196 2.3509886e-38
-0.16713868 0.014096033 1.4517196 2.3509886e-38
-0.16579621 0.014096033 1.4517196 2.3509886e-38
-0.16469523 0.014116733 1.4538516 2.3509886e-38
-0.16335078 0.014116733 1.4538516 2.3509886e-38
-0.162156 0.014129776 1.4551947 2.3509886e-38
-0.16081031 0.014129776 1.4551947 2.3509886e-38
-0.15946461 0.014129776 1.4551947 2.3509886e-38
-0.1584799 0.014162033 1.4585168 2.3509886e-38
-0.15713112 0.014162033 1.4585168 2.3509886e-38
-0.15578236 0.014162033 1.4585168 2.3509886e-38
-0.15466863 0.014183586 1.4607365 2.3509886e-38
-0.15331781 0.014183586 1.4607365 2.3509886e-38
-0.15196699 0.014183586 1.4607365 2.3509886e-38
-0.15119609 0.014238196 1.4663608 2.3509886e-38
-0.14984007 0.014238196 1.4663608 2.3509886e-38
-0.14848405 0.014238196 1.4663608 2.3509886e-38
-0.1479781 0.014320461 1.474833 2.3509886e-38
-0.14661424 0.014320461 1.474833 2.3509886e-38
-0.13045444 0.014494937 1.4928019 2.3509886e-38
-0.12907396 0.014494937 1.4928019 2.3509886e-38
-0.12769349 0.014494937 1.4928019 2.3509886e-38
-0.12547716 0.014399019 1.4829235 2.3509886e-38
-0.12410583 0.014399019 1.4829235 2.3509886e-38
-0.12273449 0.014399019 1.4829235 2.3509886e-38
-0.12136316 0.014399019 1.4829235 2.3509886e-38
-0.11999182 0.014399019 1.4829235 2.3509886e-38
-0.1190109 0.014446409 1.4878042 2.3509886e-38
-0.11763505 0.014446409 1.4878042 2.3509886e-38
-0.1162592 0.014446409 1.4878042 2.3509886e-38
-0.24926616 0.013046988 1.485121 1.9360729e-38
-0.2478928 0.013046988 1.485121 2.2588295e-38
-0.24651943 0.013046988 1.485121 2.3509886e-38
-0.24512972 0.013046118 1.4850219 2.3509886e-38
-0.24375644 0.013046118 1.4850219 2.3509886e-38
-0.24238317 0.013046118 1.4850219 2.3509886e-38
-0.24086365 0.013038202 1.4841208 2.3509886e-38
-0.23949119 0.013038202 1.4841208 2.3509886e-38
-0.23811875 0.013038202 1.4841208 2.3509886e-38
-0.23666172 0.013033543 1.4835905 2.3509886e-38
-0.23528977 0.013033543 1.4835905 2.3509886e-38
-0.2339178 0.013033543 1.4835905 2.3509886e-38
-0.23239441 0.013025055 1.4826243 2.341805e-38
-0.23102336 0.013025055 1.4826243 2.3326215e-38
-0.2296523 0.013025055 1.4826243 2.3509886e-38
-0.22828123 0.013025055 1.4826243 2.341805e-38
-0.22691017 0.013025055 1.4826243 2.341805e-38
-0.22560391 0.013028797 1.4830502 2.3509886e-38
-0.22423247 0.013028797 1.4830502 2.341805e-38
-0.22286101 0.013028797 1.4830502 2.2865242e-38
-0.22169341 0.013040788 1.4844152 2.2035125e-38
-0.22032069 0.013040788 1.4844152 2.129684e-38
-0.21894798 0.013040788 1.4844152 2.0557477e-38
-0.21805628 0.013069618 1.4876969 2.1291805e-38
-0.21346328 0.012875563 1.4656078 2.0366253e-38
-0.21210796 0.012875563 1.4656078 1.2704304e-38
-0.21075264 0.012875563 1.4656078 6.244846e-39
-0.20939732 0.012875563 1.4656078 5.9693465e-39
-0.20452654 0.012657994 1.4408423 1.2150411e-38
-0.20319413 0.012657994 1.4408423 2.3406191e-38
-0.20186171 0.012657994 1.4408423 2.3509886e-38
-0.19986169 0.012615854 1.4360455 2.3509886e-38
-0.19853371 0.012615854 1.4360455 2.3509886e-38
-0.19720572 0.012615854 1.4360455 2.3509886e-38
-0.19575831 0.012608162 1.4351699 2.3509886e-38
-0.19443114 0.012608162 1.4351699 2.3509886e-38
-0.19310395 0.012608162 1.4351699 2.3509886e-38
-0.19177678 0.012608162 1.4351699 2.3509886e-38
-0.19044961 0.012608162 1.4351699 2.3509886e-38
-0.18927543 0.012618361 1.4363309 2.3509886e-38
-0.18794718 0.012618361 1.4363309 2.3509886e-38
-0.18661892 0.012618361 1.4363309 2.3509886e-38
-0.18547463 0.012630888 1.4377569 2.3509886e-38
-0.18414506 0.012630888 1.4377569 2.3509886e-38
-0.18305945 0.012647743 1.4396755 2.3509886e-38
-0.18172811 0.012647743 1.4396755 2.3509886e-38
-0.18039677 0.012647743 1.4396755 2.3509886e-38
-0.17914547 0.012653396 1.4403189 2.3509886e-38
-0.17781353 0.012653396 1.4403189 2.3509886e-38
-0.17648159 0.012653396 1.4403189 2.3509886e-38
-0.17553279 0.012681076 1.4434696 2.3509886e-38
-0.17419794 0.012681076 1.4434696 2.3509886e-38
-0.1728631 0.012681076 1.4434696 2.3509886e-38
-0.1720309 0.012718237 1.4476997 2.3509886e-38
-0.17069213 0.012718237 1.4476997 2.3509886e-38
-0.16935338 0.012718237 1.4476997 2.3509886e-38
-0.16848116 0.012753553 1.4517196 2.3509886e-38
-0.16713868 0.012753553 1.4517196 2.3509886e-38
-0.16579621 0.012753553 1.4517196 2.3509886e-38
-0.16469523 0.012772283 1.4538516 2.3509886e-38
-0.16335078 0.012772283 1.4538516 2.3509886e-38
-0.162156 0.012784082 1.4551947 2.3509886e-38
-0.16081031 0.012784082 1.4551947 2.3509886e-38
-0.15946461 0.012784082 1.4551947 2.3509886e-38
-0.1584799 0.012813267 1.4585168 2.3509886e-38
-0.15713112 0.012813267 1.4585168 2.3509886e-38
-0.15578236 0.012813267 1.4585168 2.3509886e-38
-0.15466863 0.012832767 1.4607365 2.3509886e-38
-0.15331781 0.012832767 1.4607365 2.3509886e-38
-0.15196699 0.012832767 1.4607365 2.3509886e-38
-0.15119609 0.012882178 1.4663608 2.3509886e-38
-0.14984007 0.012882178 1.4663608 2.3509886e-38
-0.14848405 0.012882178 1.4663608 2.3509886e-38
-0.1479781 0.012956607 1.474833 2.3509886e-38
-0.14661424 0.012956607 1.474833 2.3509886e-38
-0.13045444 0.013114466 1.4928019 2.3509886e-38
-0.12907396 0.013114466 1.4928019 2.3509886e-38
-0.12769349 0.013114466 1.4928019 2.3509886e-38
-0.12547716 0.013027684 1.4829235 2.3509886e-38
-0.12410583 0.013027684 1.4829235 2.3509886e-38
-0.12273449 0.013027684 1.4829235 2.3509886e-38
-0.12136316 0.013027684 1.4829235 2.3509886e-38
-0.11999182 0.013027684 1.4829235 2.3509886e-38
-0.1190109 0.013070561 1.4878042 2.3509886e-38
-0.11763505 0.013070561 1.4878042 2.3509886e-38
-0.1162592 0.013070561 1.4878042 2.3509886e-38
-0.24926616 0.011673621 1.485121 1.9360729e-38
-0.2478928 0.011673621 1.485121 2.2588295e-38
-0.24651943 0.011673621 1.485121 2.3509886e-38
-0.24512972 0.011672842 1.4850219 2.3509886e-38
-0.24375644 0.011672842 1.4850219 2.3509886e-38
-0.24238317 0.011672842 1.4850219 2.3509886e-38
-0.24086365 0.01166576 1.4841208 2.3509886e-38
-0.23949119 0.01166576 1.4841208 2.3509886e-38
-0.23811875 0.01166576 1.4841208 2.3509886e-38
-0.23666172 0.011661591 1.4835905 2.341805e-38
-0.23528977 0.011661591 1.4835905 2.3509886e-38
-0.2339178 0.011661591 1.4835905 2.3509886e-38
-0.23239441 0.011653996 1.4826243 2.3509886e-38
-0.23102336 0.011653996 1.4826243 2.341805e-38
-0.2296523 0.011653996 1.4826243 2.3509886e-38
-0.22828123 0.011653996 1.4826243 2.341805e-38
-0.22691017 0.011653996 1.4826243 2.341805e-38
-0.22560391 0.011657344 1.4830502 2.341805e-38
-0.22423247 0.011657344 1.4830502 2.3325856e-38
-0.22286101 0.011657344 1.4830502 2.2773046e-38
-0.22169341 0.011668073 1.4844152 2.2035125e-38
-0.22032069 0.011668073 1.4844152 2.129684e-38
-0.21894798 0.011668073 1.4844152 2.046528e-38
-0.21805628 0.011693869 1.4876969 2.0923743e-38
-0.21346328 0.01152024 1.4656078 2.0644637e-38
-0.21210796 0.01152024 1.4656078 1.3352191e-38
-0.21075264 0.01152024 1.4656078 6.3366913e-39
-0.20939732 0.01152024 1.4656078 5.6045212e-39
-0.20452654 0.011325574 1.4408423 1.5934748e-38
-0.20319413 0.011325574 1.4408423 2.3503064e-38
-0.20186171 0.011325574 1.4408423 2.3509886e-38
-0.19986169 0.011287869 1.4360455 2.3509886e-38
-0.19853371 0.011287869 1.4360455 2.3509886e-38
-0.19720572 0.011287869 1.4360455 2.3509886e-38
-0.19575831 0.011280986 1.4351699 2.3509886e-38
-0.19443114 0.011280986 1.4351699 2.3509886e-38
-0.19310395 0.011280986 1.4351699 2.3509886e-38
-0.19177678 0.011280986 1.4351699 2.3509886e-38
-0.19044961 0.011280986 1.4351699 2.3509886e-38
-0.18927543 0.011290113 1.4363309 2.3509886e-38
-0.18794718 0.011290113 1.4363309 2.3509886e-38
-0.18661892 0.011290113 1.4363309 2.3509886e-38
-0.18547463 0.011301321 1.4377569 2.3509886e-38
-0.18414506 0.011301321 1.4377569 2.3509886e-38
-0.18305945 0.011316402 1.4396755 2.3509886e-38
-0.18172811 0.011316402 1.4396755 2.3509886e-38
-0.18039677 0.011316402 1.4396755 2.3509886e-38
-0.17914547 0.01132146 1.4403189 2.3509886e-38
-0.17781353 0.01132146 1.4403189 2.3509886e-38
-0.17648159 0.01132146 1.4403189 2.3509886e-38
-0.17553279 0.011346226 1.4434696 2.3509886e-38
-0.17419794 0.011346226 1.4434696 2.3509886e-38
-0.1728631 0.011346226 1.4434696 2.3509886e-38
-0.1720309 0.011379475 1.4476997 2.3509886e-38
-0.17069213 0.011379475 1.4476997 2.3509886e-38
-0.16935338 0.011379475 1.4476997 2.3509886e-38
-0.16848116 0.011411074 1.4517196 2.3509886e-38
-0.16713868 0.011411074 1.4517196 2.3509886e-38
-0.16579621 0.011411074 1.4517196 2.3509886e-38
-0.16469523 0.011427832 1.4538516 2.3509886e-38
-0.16335078 0.011427832 1.4538516 2.3509886e-38
-0.162156 0.011438389 1.4551947 2.3509886e-38
-0.16081031 0.011438389 1.4551947 2.3509886e-38
-0.15946461 0.011438389 1.4551947 2.3509886e-38
-0.1584799 0.011464503 1.4585168 2.3509886e-38
-0.15713112 0.011464503 1.4585168 2.3509886e-38
-0.15578236 0.011464503 1.4585168 2.3509886e-38
-0.15466863 0.01148195 1.4607365 2.3509886e-38
-0.15331781 0.01148195 1.4607365 2.3509886e-38
-0.15196699 0.01148195 1.4607365 2.3509886e-38
-0.15119609 0.011526159 1.4663608 2.3509886e-38
-0.14984007 0.011526159 1.4663608 2.3509886e-38
-0.14848405 0.011526159 1.4663608 2.3509886e-38
-0.1479781 0.011592754 1.474833 2.3509886e-38
-0.14661424 0.011592754 1.474833 2.3509886e-38
-0.13045444 0.011733996 1.4928019 2.3509886e-38
-0.12907396 0.011733996 1.4928019 2.3509886e-38
-0.12769349 0.011733996 1.4928019 2.3509886e-38
-0.12547716 0.011656349 1.4829235 2.3509886e-38
-0.12410583 0.011656349 1.4829235 2.3509886e-38
-0.12273449 0.011656349 1.4829235 2.3509886e-38
-0.12136316 0.011656349 1.4829235 2.3509886e-38
-0.11999182 0.011656349 1.4829235 2.3509886e-38
-0.1190109 0.011694712 1.4878042 2.3509886e-38
-0.11763505 0.011694712 1.4878042 2.3509886e-38
-0.1162592 0.011694712 1.4878042 2.3509886e-38
-0.24896641 0.010287868 1.483335 1.9360729e-38
-0.24759468 0.010287868 1.483335 2.2588295e-38
-0.24622297 0.010287868 1.483335 2.3509886e-38
-0.24483685 0.010287262 1.4832478 2.3509886e-38
-0.24346521 0.010287262 1.4832478 2.3509886e-38
-0.24209358 0.010287262 1.4832478 2.3509886e-38
-0.24054018 0.010279494 1.4821278 2.3509886e-38
-0.23916958 0.010279494 1.4821278 2.3509886e-38
-0.23779899 0.010279494 1.4821278 2.341805e-38
-0.23636204 0.01027661 1.4817119 2.341805e-38
-0.23499182 0.01027661 1.4817119 2.341805e-38
-0.23362161 0.01027661 1.4817119 2.3509886e-38
-0.23213258 0.010271354 1.4809539 2.3509886e-38
-0.23076308 0.010271354 1.4809539 2.341805e-38
-0.22939356 0.010271354 1.4809539 2.3509886e-38
-0.22800592 0.010270537 1.4808362 2.3509886e-38
-0.22663651 0.010270537 1.4808362 2.341805e-38
-0.2252671 0.010270537 1.4808362 2.3050349e-38
-0.2238977 0.010270537 1.4808362 2.2957438e-38
-0.22252829 0.010270537 1.4808362 2.2773046e-38
-0.22147828 0.010285369 1.4829748 2.2035121e-38
-0.2198028 0.010271158 1.4809258 2.1204642e-38
-0.21843331 0.010271158 1.4809258 2.0374162e-38
-0.21706381 0.010271158 1.4809258 2.046384e-38
-0.21212628 0.010101251 1.4564282 2.0552438e-38
-0.21077946 0.010101251 1.4564282 1.2801891e-38
-0.20943262 0.010101251 1.4564282 5.7885524e-39
-0.20808579 0.010101251 1.4564282 6.162011e-39
-0.20419236 0.0099768257 1.438488 2.0179344e-38
-0.20286211 0.0099768257 1.438488 2.3507733e-38
-0.20153187 0.0099768257 1.438488 2.3509886e-38
-0.1995225 0.0099429814 1.4336083 2.3509886e-38
-0.19819677 0.0099429814 1.4336083 2.3509886e-38
-0.19687103 0.0099429814 1.4336083 2.3509886e-38
-0.19542919 0.0099370768 1.432757 2.3509886e-38
-0.19410424 0.0099370768 1.432757 2.3509886e-38
-0.1927793 0.0099370768 1.432757 2.3509886e-38
-0.19145435 0.0099370768 1.432757 2.3509886e-38
-0.19012941 0.0099370768 1.432757 2.3509886e-38
-0.18886641 0.0099403374 1.4332271 2.3509886e-38
-0.18754104 0.0099403374 1.4332271 2.3509886e-38
-0.18621565 0.0099403374 1.4332271 2.3509886e-38
-0.18519311 0.0099566188 1.4355745 2.3509886e-38
-0.18386556 0.0099566188 1.4355745 2.3509886e-38
-0.18294491 0.0099788131 1.4387746 2.3509886e-38
-0.1816144 0.0099788131 1.4387746 2.3509886e-38
-0.18028389 0.0099788131 1.4387746 2.3509886e-38
-0.17915113 0.00998984 1.4403645 2.3509886e-38
-0.17781915 0.00998984 1.4403645 2.3509886e-38
-0.17648718 0.00998984 1.4403645 2.3509886e-38
-0.17546755 0.010007654 1.4429331 2.3509886e-38
-0.1741332 0.010007654 1.4429331 2.3509886e-38
-0.17279884 0.010007654 1.4429331 2.3509886e-38
-0.17176002 0.010024904 1.4454201 2.3509886e-38
-0.17042337 0.010024904 1.4454201 2.3509886e-38
-0.16908671 0.010024904 1.4454201 2.3509886e-38
-0.16811337 0.010046615 1.4485506 2.3509886e-38
-0.16677383 0.010046615 1.4485506 2.3509886e-38
-0.16543427 0.010046615 1.4485506 2.3509886e-38
-0.16429846 0.010059089 1.4503491 2.3509886e-38
-0.16295725 0.010059089 1.4503491 2.3509886e-38
-0.16195232 0.01008002 1.4533669 2.3509886e-38
-0.16060831 0.01008002 1.4533669 2.3509886e-38
-0.15926431 0.01008002 1.4533669 2.3509886e-38
-0.15843917 0.010113139 1.458142 2.3509886e-38
-0.15709075 0.010113139 1.458142 2.3509886e-38
-0.15574233 0.010113139 1.458142 2.3509886e-38
-0.15480864 0.010140304 1.4620588 2.3509886e-38
-0.1534566 0.010140304 1.4620588 2.3509886e-38
-0.15210456 0.010140304 1.4620588 2.3509886e-38
-0.15117712 0.010168865 1.4661769 2.3509886e-38
-0.14982128 0.010168865 1.4661769 2.3509886e-38
-0.14846542 0.010168865 1.4661769 2.3509886e-38
-0.14772572 0.010211455 1.4723176 2.3509886e-38
-0.14636418 0.010211455 1.4723176 2.3509886e-38
-0.14745057 0.010383843 1.497173 2.3509886e-38
-0.14606605 0.010383843 1.497173 2.3509886e-38
-0.14468154 0.010383843 1.497173 2.3509886e-38
-0.12671225 0.010164084 1.4654875 2.3509886e-38
-0.12535703 0.010164084 1.4654875 2.3509886e-38
-0.12400182 0.010164084 1.4654875 2.3509886e-38
-0.12264661 0.010164084 1.4654875 2.3509886e-38
-0.1212914 0.010164084 1.4654875 2.3509886e-38
-0.12099287 0.010253633 1.478399 2.3509886e-38
-0.11962572 0.010253633 1.478399 2.3509886e-38
-0.1187024 0.010292117 1.4839476 2.3509886e-38
-0.11733013 0.010292117 1.4839476 2.3509886e-38
-0.11595784 0.010292117 1.4839476 2.3509886e-38
-0.24896641 0.0089161517 1.483335 1.9268534e-38
-0.24759468 0.0089161517 1.483335 2.2496099e-38
-0.24622297 0.0089161517 1.483335 2.3509886e-38
-0.24483685 0.0089156274 1.4832478 2.3509886e-38
-0.24346521 0.0089156274 1.4832478 2.3509886e-38
-0.24209358 0.0089156274 1.4832478 2.3509886e-38
-0.24054018 0.0089088958 1.4821278 2.3509886e-38
-0.23916958 0.0089088958 1.4821278 2.3509886e-38
-0.23779899 0.0089088958 1.4821278 2.3509886e-38
-0.23636204 0.0089063952 1.4817119 2.341805e-38
-0.23499182 0.0089063952 1.4817119 2.341805e-38
-0.23362161 0.0089063952 1.4817119 2.3509886e-38
-0.23213258 0.0089018391 1.4809539 2.341805e-38
-0.23076308 0.0089018391 1.4809539 2.3326215e-38
-0.22939356 0.0089018391 1.4809539 2.341805e-38
-0.22800592 0.0089011313 1.4808362 2.3509886e-38
-0.22663651 0.0089011313 1.4808362 2.3234379e-38
-0.2252671 0.0089011313 1.4808362 2.2958155e-38
-0.2238977 0.0089011313 1.4808362 2.2865242e-38
-0.22252829 0.0089011313 1.4808362 2.2773046e-38
-0.22147828 0.0089139864 1.4829748 2.2126957e-38
-0.2198028 0.0089016706 1.4809258 2.1112446e-38
-0.21843331 0.0089016706 1.4809258 2.018977e-38
-0.21706381 0.0089016706 1.4809258 2.0186894e-38
-0.21212628 0.0087544182 1.4564282 1.9999264e-38
-0.21077946 0.0087544182 1.4564282 1.2528181e-38
-0.20943262 0.0087544182 1.4564282 6.9914115e-39
-0.20808579 0.0087544182 1.4564282 1.012966e-38
-0.20419236 0.0086465823 1.438488 2.3040645e-38
-0.20286211 0.0086465823 1.438488 2.3509886e-38
-0.20153187 0.0086465823 1.438488 2.3234379e-38
-0.1995225 0.0086172502 1.4336083 2.3509886e-38
-0.19819677 0.0086172502 1.4336083 2.3509886e-38
-0.19687103 0.0086172502 1.4336083 2.3509886e-38
-0.19542919 0.0086121336 1.432757 2.3509886e-38
-0.19410424 0.0086121336 1.432757 2.3509886e-38
-0.1927793 0.0086121336 1.432757 2.3509886e-38
-0.19145435 0.0086121336 1.432757 2.3509886e-38
-0.19012941 0.0086121336 1.432757 2.3509886e-38
-0.18886641 0.0086149592 1.4332271 2.3509886e-38
-0.18754104 0.0086149592 1.4332271 2.3509886e-38
-0.18621565 0.0086149592 1.4332271 2.3509886e-38
-0.18519311 0.0086290697 1.4355745 2.3509886e-38
-0.18386556 0.0086290697 1.4355745 2.3509886e-38
-0.18294491 0.0086483043 1.4387746 2.3509886e-38
-0.1816144 0.0086483043 1.4387746 2.3509886e-38
-0.18028389 0.0086483043 1.4387746 2.3509886e-38
-0.17915113 0.0086578615 1.4403645 2.3509886e-38
-0.17781915 0.0086578615 1.4403645 2.3509886e-38
-0.17648718 0.0086578615 1.4403645 2.3509886e-38
-0.17546755 0.008673301 1.4429331 2.3509886e-38
-0.1741332 0.008673301 1.4429331 2.3509886e-38
-0.17279884 0.008673301 1.4429331 2.3509886e-38
-0.17176002 0.0086882496 1.4454201 2.3509886e-38
-0.17042337 0.0086882496 1.4454201 2.3509886e-38
-0.16908671 0.0086882496 1.4454201 2.3509886e-38
-0.16811337 0.008707067 1.4485506 2.3509886e-38
-0.16677383 0.008707067 1.4485506 2.3509886e-38
-0.16543427 0.008707067 1.4485506 2.3509886e-38
-0.16429846 0.0087178778 1.4503491 2.3509886e-38
-0.16295725 0.0087178778 1.4503491 2.3509886e-38
-0.16195232 0.0087360172 1.4533669 2.3509886e-38
-0.16060831 0.0087360172 1.4533669 2.3509886e-38
-0.15926431 0.0087360172 1.4533669 2.3509886e-38
-0.15843917 0.0087647196 1.458142 2.3509886e-38
-0.15709075 0.0087647196 1.458142 2.3509886e-38
-0.15574233 0.0087647196 1.458142 2.3509886e-38
-0.15480864 0.0087882625 1.4620588 2.3509886e-38
-0.1534566 0.0087882625 1.4620588 2.3509886e-38
-0.15210456 0.0087882625 1.4620588 2.3509886e-38
-0.15117712 0.0088130161 1.4661769 2.3509886e-38
-0.14982128 0.0088130161 1.4661769 2.3509886e-38
-0.14846542 0.0088130161 1.4661769 2.3509886e-38
-0.14772572 0.0088499272 1.4723176 2.3509886e-38
-0.14636418 0.0088499272 1.4723176 2.3509886e-38
-0.14745057 0.00899933 1.497173 2.3509886e-38
-0.14606605 0.00899933 1.497173 2.3509886e-38
-0.14468154 0.00899933 1.497173 2.3509886e-38
-0.12671225 0.0088088727 1.4654875 2.3509886e-38
-0.12535703 0.0088088727 1.4654875 2.3509886e-38
-0.12400182 0.0088088727 1.4654875 2.3509886e-38
-0.12264661 0.0088088727 1.4654875 2.3509886e-38
-0.1212914 0.0088088727 1.4654875 2.3509886e-38
-0.12099287 0.0088864826 1.478399 2.3509886e-38
-0.11962572 0.0088864826 1.478399 2.3509886e-38
-0.1187024 0.0089198342 1.4839476 2.3509886e-38
-0.11733013 0.0089198342 1.4839476 2.2867037e-38
-0.11595784 0.0089198342 1.4839476 2.2497901e-38
-0.24896641 0.007544436 1.483335 1.9176338e-38
-0.24759468 0.007544436 1.483335 2.2219873e-38
-0.24622297 0.007544436 1.483335 2.3509886e-38
-0.24483685 0.0075439923 1.4832478 2.3509886e-38
-0.24346521 0.0075439923 1.4832478 2.3509886e-38
-0.24209358 0.0075439923 1.4832478 2.3509886e-38
-0.24054018 0.0075382958 1.4821278 2.3509886e-38
-0.23916958 0.0075382958 1.4821278 2.3509886e-38
-0.23779899 0.0075382958 1.4821278 2.3509886e-38
-0.23636204 0.0075361803 1.4817119 2.341805e-38
-0.23499182 0.0075361803 1.4817119 2.341805e-38
-0.23362161 0.0075361803 1.4817119 2.341805e-38
-0.23213258 0.0075323256 1.4809539 2.3326215e-38
-0.23076308 0.0075323256 1.4809539 2.3142544e-38
-0.22939356 0.0075323256 1.4809539 2.3234379e-38
-0.22800592 0.0075317267 1.4808362 2.3142544e-38
-0.22663651 0.0075317267 1.4808362 2.3050349e-38
-0.2252671 0.0075317267 1.4808362 2.2958155e-38
-0.2238977 0.0075317267 1.4808362 2.2957438e-38
-0.22252829 0.0075317267 1.4808362 2.2773046e-38
-0.22147828 0.0075426036 1.4829748 2.1942926e-38
-0.2198028 0.0075321826 1.4809258 2.1112446e-38
-0.21843331 0.0075321826 1.4809258 2.018977e-38
-0.21706381 0.0075321826 1.4809258 2.0279448e-38
-0.21212628 0.0074075842 1.4564282 1.8709246e-38
-0.21077946 0.0074075842 1.4564282 1.1607664e-38
-0.20943262 0.0074075842 1.4564282 8.6545272e-39
-0.20808579 0.0074075842 1.4564282 1.5111458e-38
-0.20419236 0.0073163384 1.438488 2.3504137e-38
-0.20286211 0.0073163384 1.438488 2.3509886e-38
-0.20153187 0.0073163384 1.438488 2.341805e-38
-0.1995225 0.0072915195 1.4336083 2.3509886e-38
-0.19819677 0.0072915195 1.4336083 2.3509886e-38
-0.19687103 0.0072915195 1.4336083 2.3509886e-38
-0.19542919 0.0072871898 1.432757 2.3509886e-38
-0.19410424 0.0072871898 1.432757 2.3509886e-38
-0.1927793 0.0072871898 1.432757 2.3509886e-38
-0.19145435 0.0072871898 1.432757 2.3509886e-38
-0.19012941 0.0072871898 1.432757 2.3509886e-38
-0.18886641 0.0072895805 1.4332271 2.3509886e-38
-0.18754104 0.0072895805 1.4332271 2.3509886e-38
-0.18621565 0.0072895805 1.4332271 2.3509886e-38
-0.18519311 0.0073015201 1.4355745 2.3509886e-38
-0.18386556 0.0073015201 1.4355745 2.3509886e-38
-0.18294491 0.0073177959 1.4387746 2.3509886e-38
-0.1816144 0.0073177959 1.4387746 2.3509886e-38
-0.18028389 0.0073177959 1.4387746 2.3509886e-38
-0.17915113 0.0073258826 1.4403645 2.3509886e-38
-0.17781915 0.0073258826 1.4403645 2.3509886e-38
-0.17648718 0.0073258826 1.4403645 2.3509886e-38
-0.17546755 0.0073389467 1.4429331 2.3509886e-38
-0.1741332 0.0073389467 1.4429331 2.3509886e-38
-0.17279884 0.0073389467 1.4429331 2.3509886e-38
-0.17176002 0.0073515959 1.4454201 2.3509886e-38
-0.17042337 0.0073515959 1.4454201 2.3509886e-38
-0.16908671 0.0073515959 1.4454201 2.3509886e-38
-0.16811337 0.0073675178 1.4485506 2.3509886e-38
-0.16677383 0.0073675178 1.4485506 2.3509886e-38
-0.16543427 0.0073675178 1.4485506 2.3509886e-38
-0.16429846 0.0073766652 1.4503491 2.3509886e-38
-0.16295725 0.0073766652 1.4503491 2.3509886e-38
-0.16195232 0.0073920144 1.4533669 2.3509886e-38
-0.16060831 0.0073920144 1.4533669 2.3509886e-38
-0.15926431 0.0073920144 1.4533669 2.3509886e-38
-0.15843917 0.0074163014 1.458142 2.3509886e-38
-0.15709075 0.0074163014 1.458142 2.3509886e-38
-0.15574233 0.0074163014 1.458142 2.3509886e-38
-0.15480864 0.0074362224 1.4620588 2.3509886e-38
-0.1534566 0.0074362224 1.4620588 2.3509886e-38
-0.15210456 0.0074362224 1.4620588 2.3509886e-38
-0.15117712 0.0074571674 1.4661769 2.3509886e-38
-0.14982128 0.0074571674 1.4661769 2.3509886e-38
-0.14846542 0.0074571674 1.4661769 2.3509886e-38
-0.14772572 0.0074883997 1.4723176 2.3509886e-38
-0.14636418 0.0074883997 1.4723176 2.3509886e-38
-0.14745057 0.0076148175 1.497173 2.3509886e-38
-0.14606605 0.0076148175 1.497173 2.3509886e-38
-0.14468154 0.0076148175 1.497173 2.3509886e-38
-0.12671225 0.0074536614 1.4654875 2.2404986e-38
-0.12535703 0.0074536614 1.4654875 2.2497181e-38
-0.12400182 0.0074536614 1.4654875 2.2865602e-38
-0.12264661 0.0074536614 1.4654875 2.3234379e-38
-0.1212914 0.0074536614 1.4654875 2.3509886e-38
-0.12099287 0.0075193313 1.478399 2.3509886e-38
-0.11962572 0.0075193313 1.478399 2.3509886e-38
-0.1187024 0.0075475518 1.4839476 2.3142544e-38
-0.11733013 0.0075475518 1.4839476 2.1760336e-38
-0.11595784 0.0075475518 1.4839476 2.102277e-38
-0.24813689 0.0061521539 1.4783928 1.9360729e-38
-0.24676976 0.0061521539 1.4783928 2.2219873e-38
-0.2454026 0.0061521539 1.4783928 2.3509886e-38
-0.24410361 0.0061538718 1.4788057 2.3509886e-38
-0.24273607 0.0061538718 1.4788057 2.3509886e-38
-0.24136855 0.0061538718 1.4788057 2.3509886e-38
-0.23984085 0.0061497651 1.4778187 2.3509886e-38
-0.23847423 0.0061497651 1.4778187 2.3509886e-38
-0.23710762 0.0061497651 1.4778187 2.3509886e-38
-0.23560157 0.0061461278 1.4769447 2.3509886e-38
-0.23423578 0.0061461278 1.4769447 2.341805e-38
-0.23286997 0.0061461278 1.4769447 2.341805e-38
-0.23121729 0.0061385119 1.4751146 2.341805e-38
-0.22985318 0.0061385119 1.4751146 2.3326215e-38
-0.22848907 0.0061385119 1.4751146 2.3234379e-38
-0.22712496 0.0061385119 1.4751146 2.3142544e-38
-0.22576085 0.0061385119 1.4751146 2.3234379e-38
-0.22439866 0.0061385646 1.4751272 2.3050349e-38
-0.22303453 0.0061385646 1.4751272 2.2957438e-38
-0.2216704 0.0061385646 1.4751272 2.2773046e-38
-0.22064948 0.0061481274 1.4774252 2.1942926e-38
-0.21820585 0.0061179209 1.4701664 2.1112446e-38
-0.21684632 0.0061179209 1.4701664 2.0374162e-38
-0.21548678 0.0061179209 1.4701664 2.0094697e-38
-0.21412724 0.0061179209 1.4701664 1.7787648e-38
-0.2088552 0.0060054203 1.443132 1.1793495e-38
-0.20752065 0.0060054203 1.443132 1.0963014e-38
-0.20618612 0.0060054203 1.443132 1.8248268e-38
-0.20325409 0.0059585883 1.4318781 2.3413021e-38
-0.20192996 0.0059585883 1.4318781 2.3509886e-38
-0.20060582 0.0059585883 1.4318781 2.3509886e-38
-0.19876449 0.0059431237 1.4281619 2.3509886e-38
-0.1974438 0.0059431237 1.4281619 2.3509886e-38
-0.19612309 0.0059431237 1.4281619 2.3509886e-38
-0.1948024 0.0059431237 1.4281619 2.3509886e-38
-0.19348171 0.0059431237 1.4281619 2.3509886e-38
-0.19240776 0.005950755 1.4299957 2.3509886e-38
-0.19107288 0.0059503661 1.4299022 2.3509886e-38
-0.18975057 0.0059503661 1.4299022 2.3509886e-38
-0.18842827 0.0059503661 1.4299022 2.3509886e-38
-0.18710597 0.0059503661 1.4299022 2.3509886e-38
-0.18578365 0.0059503661 1.4299022 2.3509886e-38
-0.18491751 0.0059650806 1.4334382 2.3509886e-38
-0.18359193 0.0059650806 1.4334382 2.3509886e-38
-0.18226637 0.0059650806 1.4334382 2.3509886e-38
-0.18108304 0.0059697703 1.4345651 2.3509886e-38
-0.17975642 0.0059697703 1.4345651 2.3509886e-38
-0.17866923 0.0059777806 1.4364901 2.3509886e-38
-0.17734084 0.0059777806 1.4364901 2.3509886e-38
-0.17601244 0.0059777806 1.4364901 2.3509886e-38
-0.17476441 0.0059805308 1.437151 2.3509886e-38
-0.1734354 0.0059805308 1.437151 2.3509886e-38
-0.1721064 0.0059805308 1.437151 2.3509886e-38
-0.17122808 0.0059963139 1.4409437 2.3509886e-38
-0.16989557 0.0059963139 1.4409437 2.3509886e-38
-0.16856305 0.0059963139 1.4409437 2.3509886e-38
-0.16775095 0.0060149743 1.4454279 2.3509886e-38
-0.16641431 0.0060149743 1.4454279 2.3509886e-38
-0.16507764 0.0060149743 1.4454279 2.3509886e-38
-0.16409385 0.0060279374 1.448543 2.3509886e-38
-0.16275431 0.0060279374 1.448543 2.3509886e-38
-0.16141477 0.0060279374 1.448543 2.3509886e-38
-0.15986325 0.0060199546 1.4466246 2.3509886e-38
-0.15852548 0.0060199546 1.4466246 2.3509886e-38
-0.1571877 0.0060199546 1.4466246 2.3509886e-38
-0.15535399 0.0060007977 1.4420211 2.3509886e-38
-0.15402047 0.0060007977 1.4420211 2.3509886e-38
-0.15268697 0.0060007977 1.4420211 2.3509886e-38
-0.15135345 0.0060007977 1.4420211 2.3509886e-38
-0.15001994 0.0060007977 1.4420211 2.3509886e-38
-0.14874135 0.0060030138 1.4425538 2.3509886e-38
-0.14740735 0.0060030138 1.4425538 2.3509886e-38
-0.14607334 0.0060030138 1.4425538 2.3509886e-38
-0.14383461 0.0060209832 1.4468719 2.3509886e-38
-0.14249662 0.0060209832 1.4468719 2.3509886e-38
-0.14115861 0.0060209832 1.4468719 2.3509886e-38
-0.13919964 0.0059942431 1.440446 2.3509886e-38
-0.13786758 0.0059942431 1.440446 2.3509886e-38
-0.13653554 0.0059942431 1.440446 2.3509886e-38
-0.13520348 0.0059942431 1.440446 2.3509886e-38
-0.13387144 0.0059942431 1.440446 2.3509886e-38
-0.12553982 0.0060420232 1.4519279 2.1389756e-38
-0.12419715 0.0060420232 1.4519279 2.1574147e-38
-0.12285448 0.0060420232 1.4519279 2.1850733e-38
-0.12151181 0.0060420232 1.4519279 2.2127321e-38
-0.12016913 0.0060420232 1.4519279 2.2680493e-38
-0.12025348 0.0061145839 1.4693645 2.3509886e-38
-0.11889469 0.0061145839 1.4693645 2.3509886e-38
-0.11753589 0.0061145839 1.4693645 2.1944009e-38
-0.116351 0.006123737 1.4715641 2.1206444e-38
-0.11499017 0.006123737 1.4715641 2.1206444e-38
-0.11362934 0.006123737 1.4715641 2.1851813e-38
-0.24676976 0.0047850087 1.4783928 2.2312068e-38
-0.2454026 0.0047850087 1.4783928 2.3509886e-38
-0.24410361 0.0047863452 1.4788057 2.3509886e-38
-0.24273607 0.0047863452 1.4788057 2.3509886e-38
-0.24136855 0.0047863452 1.4788057 2.3509886e-38
-0.23984085 0.0047831507 1.4778187 2.3509886e-38
-0.23847423 0.0047831507 1.4778187 2.3509886e-38
-0.23710762 0.0047831507 1.4778187 2.3509886e-38
-0.23560157 0.0047803218 1.4769447 2.3509886e-38
-0.23423578 0.0047803218 1.4769447 2.341805e-38
-0.23286997 0.0047803218 1.4769447 2.341805e-38
-0.23121729 0.0047743982 1.4751146 2.341805e-38
-0.22985318 0.0047743982 1.4751146 2.3326215e-38
-0.22848907 0.0047743982 1.4751146 2.3142544e-38
-0.22712496 0.0047743982 1.4751146 2.3142544e-38
-0.22576085 0.0047743982 1.4751146 2.3050349e-38
-0.22439866 0.0047744391 1.4751272 2.2958155e-38
-0.22303453 0.0047744391 1.4751272 2.2865242e-38
-0.2216704 0.0047744391 1.4751272 2.2680491e-38
-0.22064948 0.0047818772 1.4774252 2.1942926e-38
-0.21820585 0.0047583831 1.4701664 2.1204642e-38
-0.21684632 0.0047583831 1.4701664 1.9913903e-38
-0.21548678 0.0047583831 1.4701664 1.9358931e-38
-0.21412724 0.0047583831 1.4701664 1.7420305e-38
-0.2088552 0.0046708826 1.443132 1.373284e-38
-0.20752065 0.0046708826 1.443132 1.3916152e-38
-0.20618612 0.0046708826 1.443132 1.9725196e-38
-0.20325409 0.0046344581 1.4318781 2.2953841e-38
-0.20192996 0.0046344581 1.4318781 2.3509886e-38
-0.20060582 0.0046344581 1.4318781 2.3509886e-38
-0.19876449 0.0046224301 1.4281619 2.3509886e-38
-0.1974438 0.0046224301 1.4281619 2.3509886e-38
-0.19612309 0.0046224301 1.4281619 2.3509886e-38
-0.1948024 0.0046224301 1.4281619 2.3509886e-38
-0.19348171 0.0046224301 1.4281619 2.3509886e-38
-0.19240776 0.0046283654 1.4299957 2.3509886e-38
-0.19107288 0.0046280627 1.4299022 2.3509886e-38
-0.18975057 0.0046280627 1.4299022 2.3509886e-38
-0.18842827 0.0046280627 1.4299022 2.3509886e-38
-0.18710597 0.0046280627 1.4299022 2.3509886e-38
-0.18578365 0.0046280627 1.4299022 2.3509886e-38
-0.18491751 0.0046395073 1.4334382 2.3509886e-38
-0.18359193 0.0046395073 1.4334382 2.3509886e-38
-0.18226637 0.0046395073 1.4334382 2.3509886e-38
-0.18108304 0.0046431548 1.4345651 2.3509886e-38
-0.17975642 0.0046431548 1.4345651 2.3509886e-38
-0.17866923 0.0046493853 1.4364901 2.3509886e-38
-0.17734084 0.0046493853 1.4364901 2.3509886e-38
-0.17601244 0.0046493853 1.4364901 2.3509886e-38
-0.17476441 0.0046515241 1.437151 2.3509886e-38
-0.1734354 0.0046515241 1.437151 2.3509886e-38
-0.1721064 0.0046515241 1.437151 2.3509886e-38
-0.17122808 0.0046637999 1.4409437 2.3509886e-38
-0.16989557 0.0046637999 1.4409437 2.3509886e-38
-0.16856305 0.0046637999 1.4409437 2.3509886e-38
-0.16775095 0.0046783136 1.4454279 2.3509886e-38
-0.16641431 0.0046783136 1.4454279 2.3509886e-38
-0.16507764 0.0046783136 1.4454279 2.3509886e-38
-0.16409385 0.0046883961 1.448543 2.3509886e-38
-0.16275431 0.0046883961 1.448543 2.3509886e-38
-0.16141477 0.0046883961 1.448543 2.3509886e-38
-0.15986325 0.004682187 1.4466246 2.3509886e-38
-0.15852548 0.004682187 1.4466246 2.3509886e-38
-0.1571877 0.004682187 1.4466246 2.3509886e-38
-0.15535399 0.0046672872 1.4420211 2.3509886e-38
-0.15402047 0.0046672872 1.4420211 2.3509886e-38
-0.15268697 0.0046672872 1.4420211 2.3509886e-38
-0.15135345 0.0046672872 1.4420211 2.3509886e-38
-0.15001994 0.0046672872 1.4420211 2.3509886e-38
-0.14874135 0.0046690111 1.4425538 2.3509886e-38
-0.14740735 0.0046690111 1.4425538 2.3509886e-38
-0.14607334 0.0046690111 1.4425538 2.3509886e-38
-0.14383461 0.0046829875 1.4468719 2.3509886e-38
-0.14249662 0.0046829875 1.4468719 2.3509886e-38
-0.14115861 0.0046829875 1.4468719 2.3509886e-38
-0.13919964 0.0046621892 1.440446 2.3509886e-38
-0.13786758 0.0046621892 1.440446 2.3509886e-38
-0.13653554 0.0046621892 1.440446 2.2958155e-38
-0.13520348 0.0046621892 1.440446 2.2404986e-38
-0.13387144 0.0046621892 1.440446 2.185073e-38
-0.12553982 0.0046993517 1.4519279 2.0836938e-38
-0.12419715 0.0046993517 1.4519279 2.1205361e-38
-0.12285448 0.0046993517 1.4519279 2.1297556e-38
-0.12151181 0.0046993517 1.4519279 2.1205361e-38
-0.12016913 0.0046993517 1.4519279 2.1482308e-38
-0.12025348 0.0047557876 1.4693645 2.185073e-38
-0.11889469 0.0047557876 1.4693645 2.1483026e-38
-0.11753589 0.0047557876 1.4693645 2.1114244e-38
-0.116351 0.0047629066 1.4715641 2.065327e-38
-0.11499017 0.0047629066 1.4715641 2.1482671e-38
-0.11362934 0.0047629066 1.4715641 2.212804e-38
