# .PCD v0.7 - Point Cloud Data file format
VERSION 0.7
FIELDS x y z rgb
SIZE 4 4 4 4
TYPE F F F F
COUNT 1 1 1 1
WIDTH 986
HEIGHT 1
VIEWPOINT 0 0 0 1 0 0 0
POINTS 986
DATA ascii
0.16968276 -0.014170509 0.78582525 2.1200459e-38
0.17085016 -0.014207155 0.78785753 2.1108266e-38
0.17148407 -0.014199318 0.7874229 2.1108263e-38
0.17221224 -0.014199318 0.7874229 2.1293013e-38
0.17294042 -0.014199318 0.7874229 2.129301e-38
0.17366858 -0.014199318 0.7874229 2.1293008e-38
0.17439675 -0.014199318 0.7874229 2.1109342e-38
0.17532332 -0.014215404 0.78831494 2.129338e-38
0.17605232 -0.014215404 0.78831494 2.1385573e-38
0.17678131 -0.014215404 0.78831494 2.166144e-38
0.17811356 -0.014263715 0.79099399 2.1661087e-38
0.17884503 -0.014263715 0.79099399 2.1844406e-38
0.1795765 -0.014263715 0.79099399 2.1752579e-38
0.18247449 -0.014435101 0.80049825 2.1660033e-38
0.18321475 -0.014435101 0.80049825 2.1291623e-38
0.15342014 -0.015686348 0.8274526 1.2446753e-38
0.15418532 -0.015686348 0.8274526 1.4291026e-38
0.15495051 -0.015686348 0.8274526 1.5304462e-38
0.1557157 -0.015686348 0.8274526 1.594838e-38
0.15309519 -0.01534695 0.80954945 1.6316073e-38
0.15384382 -0.01534695 0.80954945 1.6315326e-38
0.15459245 -0.01534695 0.80954945 1.6590089e-38
0.15468483 -0.015282116 0.80612946 1.6313117e-38
0.1554303 -0.015282116 0.80612946 1.6128343e-38
0.15617576 -0.015282116 0.80612946 1.612869e-38
0.15692124 -0.015282116 0.80612946 1.6129041e-38
0.15682204 -0.015200245 0.8018108 1.6404902e-38
0.15756352 -0.015200245 0.8018108 1.6772962e-38
0.15830499 -0.015200245 0.8018108 1.6864432e-38
0.15806751 -0.015106685 0.79687554 1.6864788e-38
0.15880443 -0.015106685 0.79687554 1.6957334e-38
0.15954134 -0.015106685 0.79687554 1.7602334e-38
0.15960962 -0.015043666 0.79355121 1.8155858e-38
0.16034345 -0.015043666 0.79355121 1.8709385e-38
0.16107729 -0.015043666 0.79355121 1.9078524e-38
0.16163895 -0.015027657 0.79270679 1.9631694e-38
0.16237201 -0.015027657 0.79270679 1.9816806e-38
0.16310506 -0.015027657 0.79270679 1.9909004e-38
0.16323926 -0.014972728 0.78980929 2.0185234e-38
0.16396964 -0.014972728 0.78980929 2.0185236e-38
0.1647 -0.014972728 0.78980929 2.0369626e-38
0.16504563 -0.014937906 0.78797239 2.0738407e-38
0.16577432 -0.014937906 0.78797239 2.083133e-38
0.166503 -0.014937906 0.78797239 2.1015364e-38
0.16677599 -0.014897201 0.78582525 2.1200111e-38
0.16750267 -0.014897201 0.78582525 2.138486e-38
0.16822937 -0.014897201 0.78582525 2.1384854e-38
0.16895606 -0.014897201 0.78582525 2.1293013e-38
0.16968276 -0.014897201 0.78582525 2.1293013e-38
0.17085016 -0.014935728 0.78785753 2.1292657e-38
0.17148407 -0.014927489 0.7874229 2.138521e-38
0.17221224 -0.014927489 0.7874229 2.1661434e-38
0.17294042 -0.014927489 0.7874229 2.166179e-38
0.17366858 -0.014927489 0.7874229 2.1661787e-38
0.17439675 -0.014927489 0.7874229 2.1570318e-38
0.17532332 -0.014944399 0.78831494 2.1662519e-38
0.17605232 -0.014944399 0.78831494 2.1570323e-38
0.17678131 -0.014944399 0.78831494 2.175328e-38
0.17811356 -0.014995187 0.79099399 2.175328e-38
0.17884503 -0.014995187 0.79099399 2.2030229e-38
0.1795765 -0.014995187 0.79099399 2.2030595e-38
0.18247449 -0.015175363 0.80049825 2.193769e-38
0.18321475 -0.015175363 0.80049825 2.1568916e-38
0.15342014 -0.016451536 0.8274526 1.0878343e-38
0.15418532 -0.016451536 0.8274526 1.327435e-38
0.15495051 -0.016451536 0.8274526 1.4932433e-38
0.1557157 -0.016451536 0.8274526 1.5669619e-38
0.15309519 -0.016095582 0.80954945 1.5761075e-38
0.15384382 -0.016095582 0.80954945 1.557665e-38
0.15459245 -0.016095582 0.80954945 1.6036157e-38
0.15468483 -0.016027585 0.80612946 1.6035065e-38
0.1554303 -0.016027585 0.80612946 1.6218006e-38
0.15617576 -0.016027585 0.80612946 1.6587498e-38
0.15692124 -0.016027585 0.80612946 1.6587851e-38
0.15682204 -0.01594172 0.8018108 1.6680403e-38
0.15756352 -0.01594172 0.8018108 1.7232139e-38
0.15830499 -0.01594172 0.8018108 1.7232492e-38
0.15806751 -0.015843598 0.79687554 1.6956617e-38
0.15880443 -0.015843598 0.79687554 1.7325391e-38
0.15954134 -0.015843598 0.79687554 1.8063309e-38
0.15960962 -0.015777502 0.79355121 1.8709029e-38
0.16034345 -0.015777502 0.79355121 1.9262556e-38
0.16107729 -0.015777502 0.79355121 1.9539498e-38
0.16163895 -0.015760714 0.79270679 1.9724247e-38
0.16237201 -0.015760714 0.79270679 2.0000118e-38
0.16310506 -0.015760714 0.79270679 2.0184512e-38
0.16323926 -0.015703104 0.78980929 2.0185231e-38
0.16396964 -0.015703104 0.78980929 2.0277431e-38
0.1647 -0.015703104 0.78980929 2.0369982e-38
0.16504563 -0.015666584 0.78797239 2.0554373e-38
0.16577432 -0.015666584 0.78797239 2.0646938e-38
0.166503 -0.015666584 0.78797239 2.1015011e-38
0.16677599 -0.015623895 0.78582525 2.1384507e-38
0.16750267 -0.015623895 0.78582525 2.1661087e-38
0.16822937 -0.015623895 0.78582525 2.1661084e-38
0.16895606 -0.015623895 0.78582525 2.1477409e-38
0.16968276 -0.015623895 0.78582525 2.1384854e-38
0.17085016 -0.0156643 0.78785753 2.1384854e-38
0.17148407 -0.015655659 0.7874229 2.1477403e-38
0.17221224 -0.015655659 0.7874229 2.1477759e-38
0.17294042 -0.015655659 0.7874229 2.1661787e-38
0.17366858 -0.015655659 0.7874229 2.1753983e-38
0.17439675 -0.015655659 0.7874229 2.1846184e-38
0.17532332 -0.015673395 0.78831494 2.2030224e-38
0.17605232 -0.015673395 0.78831494 2.193803e-38
0.17678131 -0.015673395 0.78831494 2.1753282e-38
0.17811356 -0.015726659 0.79099399 2.1662163e-38
0.17884503 -0.015726659 0.79099399 2.2030945e-38
0.1795765 -0.015726659 0.79099399 2.2307535e-38
0.18247449 -0.015915625 0.80049825 2.2214986e-38
0.18321475 -0.015915625 0.80049825 2.2030242e-38
0.14978918 -0.016978621 0.81600922 1.0047494e-38
0.15054379 -0.016978621 0.81600922 1.0691781e-38
0.15129839 -0.016978621 0.81600922 1.0783977e-38
0.152053 -0.016978621 0.81600922 1.2996299e-38
0.15014674 -0.016682969 0.80179989 1.4747646e-38
0.1508882 -0.016682969 0.80179989 1.530008e-38
0.15162966 -0.016682969 0.80179989 1.529934e-38
0.15163836 -0.016602742 0.79794401 1.548299e-38
0.15237626 -0.016602742 0.79794401 1.5758836e-38
0.15311415 -0.016602742 0.79794401 1.603433e-38
0.15349148 -0.016563829 0.79607391 1.667897e-38
0.15422766 -0.016563829 0.79607391 1.704811e-38
0.15496382 -0.016563829 0.79607391 1.7232494e-38
0.15528688 -0.016519882 0.7939617 1.732469e-38
0.1560211 -0.016519882 0.7939617 1.7509437e-38
0.15675531 -0.016519882 0.7939617 1.7417236e-38
0.15705322 -0.016474113 0.79176205 1.7325394e-38
0.15778539 -0.016474113 0.79176205 1.7510138e-38
0.15851757 -0.016474113 0.79176205 1.8524284e-38
0.15924975 -0.016474113 0.79176205 1.8801583e-38
0.15945818 -0.016420178 0.78916991 1.9354754e-38
0.16018796 -0.016420178 0.78916991 1.9447666e-38
0.16091774 -0.016420178 0.78916991 1.9632414e-38
0.16164753 -0.016420178 0.78916991 2.0093391e-38
0.16237733 -0.016420178 0.78916991 2.0369982e-38
0.16313718 -0.016423207 0.78931546 2.0462178e-38
0.16331822 -0.016368195 0.78667152 2.0370701e-38
0.16404569 -0.016368195 0.78667152 2.0094116e-38
0.16477317 -0.016368195 0.78667152 2.0002274e-38
0.16524509 -0.016342921 0.78545684 2.0370348e-38
0.16597144 -0.016342921 0.78545684 2.0647308e-38
0.1666978 -0.016342921 0.78545684 2.1293027e-38
0.16688609 -0.0162904 0.78293258 2.1477772e-38
0.16761011 -0.0162904 0.78293258 2.1477769e-38
0.16833413 -0.0162904 0.78293258 2.157032e-38
0.16905814 -0.0162904 0.78293258 2.1385929e-38
0.16978216 -0.0162904 0.78293258 2.1385929e-38
0.17075245 -0.016313929 0.7840634 2.1478122e-38
0.17147751 -0.016313929 0.7840634 2.1477759e-38
0.17220257 -0.016313929 0.7840634 2.1477759e-38
0.17292763 -0.016313929 0.7840634 2.1753986e-38
0.17365269 -0.016313929 0.7840634 2.1846184e-38
0.17443909 -0.016319666 0.78433913 2.1937664e-38
0.17512129 -0.016315648 0.78414607 2.1845831e-38
0.17584643 -0.016315648 0.78414607 2.1845834e-38
0.17657156 -0.016315648 0.78414607 2.1754717e-38
0.17729671 -0.016315648 0.78414607 2.2123141e-38
0.17802185 -0.016315648 0.78414607 2.2400087e-38
0.17981876 -0.016413478 0.78884786 2.2583043e-38
0.18054825 -0.016413478 0.78884786 2.2398655e-38
0.18127775 -0.016413478 0.78884786 2.2306106e-38
0.18447758 -0.016636256 0.79955477 2.2029526e-38
0.18521698 -0.016636256 0.79955477 2.1753306e-38
0.14978918 -0.017733227 0.81600922 9.9542147e-39
0.15054379 -0.017733227 0.81600922 1.0505945e-38
0.15129839 -0.017733227 0.81600922 1.1610847e-38
0.152053 -0.017733227 0.81600922 1.3087033e-38
0.15014674 -0.017424434 0.80179989 1.4838729e-38
0.1508882 -0.017424434 0.80179989 1.5114573e-38
0.15162966 -0.017424434 0.80179989 1.5113116e-38
0.15163836 -0.01734064 0.79794401 1.538933e-38
0.15237626 -0.01734064 0.79794401 1.5664467e-38
0.15311415 -0.01734064 0.79794401 1.6125075e-38
0.15349148 -0.0173 0.79607391 1.695411e-38
0.15422766 -0.0173 0.79607391 1.7231054e-38
0.15496382 -0.0173 0.79607391 1.7692031e-38
0.15528688 -0.017254097 0.7939617 1.7784942e-38
0.1560211 -0.017254097 0.7939617 1.7784942e-38
0.15675531 -0.017254097 0.7939617 1.76931e-38
0.15705322 -0.017206296 0.79176205 1.7877846e-38
0.15778539 -0.017206296 0.79176205 1.8339176e-38
0.15851757 -0.017206296 0.79176205 1.9076738e-38
0.15924975 -0.017206296 0.79176205 1.9078174e-38
0.15945818 -0.017149964 0.78916991 1.9354398e-38
0.16018796 -0.017149964 0.78916991 1.9447669e-38
0.16091774 -0.017149964 0.78916991 1.9632417e-38
0.16164753 -0.017149964 0.78916991 2.0093035e-38
0.16237733 -0.017149964 0.78916991 2.0369626e-38
0.16313718 -0.017153127 0.78931546 2.0462897e-38
0.16331822 -0.01709567 0.78667152 2.0370701e-38
0.16404569 -0.01709567 0.78667152 2.0002274e-38
0.16477317 -0.01709567 0.78667152 1.990972e-38
0.16524509 -0.017069273 0.78545684 2.0002286e-38
0.16597144 -0.017069273 0.78545684 2.0463275e-38
0.1666978 -0.017069273 0.78545684 2.0924245e-38
0.16688609 -0.017014418 0.78293258 2.129338e-38
0.16761011 -0.017014418 0.78293258 2.1385573e-38
0.16833413 -0.017014418 0.78293258 2.1478125e-38
0.16905814 -0.017014418 0.78293258 2.1478122e-38
0.16978216 -0.017014418 0.78293258 2.1570318e-38
0.17075245 -0.017038992 0.7840634 2.1662872e-38
0.17147751 -0.017038992 0.7840634 2.1753989e-38
0.17220257 -0.017038992 0.7840634 2.1753989e-38
0.17292763 -0.017038992 0.7840634 2.1845828e-38
0.17365269 -0.017038992 0.7840634 2.1937661e-38
0.17443909 -0.017044984 0.78433913 2.2028778e-38
0.17512129 -0.017040789 0.78414607 2.2121695e-38
0.17584643 -0.017040789 0.78414607 2.2030227e-38
0.17657156 -0.017040789 0.78414607 2.2398649e-38
0.17729671 -0.017040789 0.78414607 2.2583399e-38
0.17802185 -0.017040789 0.78414607 2.2675596e-38
0.17981876 -0.017142966 0.78884786 2.2858908e-38
0.18054825 -0.017142966 0.78884786 2.258268e-38
0.18127775 -0.017142966 0.78884786 2.2582324e-38
0.18447758 -0.017375644 0.79955477 2.2306103e-38
0.18521698 -0.017375644 0.79955477 2.2306832e-38
0.14978918 -0.018487833 0.81600922 8.3861645e-39
0.15054379 -0.018487833 0.81600922 1.0505568e-38
0.15129839 -0.018487833 0.81600922 1.2809723e-38
0.152053 -0.018487833 0.81600922 1.3916053e-38
0.15014674 -0.018165901 0.80179989 1.5206773e-38
0.1508882 -0.018165901 0.80179989 1.5205677e-38
0.15162966 -0.018165901 0.80179989 1.4928715e-38
0.15163836 -0.01807854 0.79794401 1.5388962e-38
0.15237626 -0.01807854 0.79794401 1.5665176e-38
0.15311415 -0.01807854 0.79794401 1.631054e-38
0.15349148 -0.01803617 0.79607391 1.6771151e-38
0.15422766 -0.01803617 0.79607391 1.7139574e-38
0.15496382 -0.01803617 0.79607391 1.7508716e-38
0.15528688 -0.017988315 0.7939617 1.7601986e-38
0.1560211 -0.017988315 0.7939617 1.7417592e-38
0.15675531 -0.017988315 0.7939617 1.7417942e-38
0.15705322 -0.01793848 0.79176205 1.7971111e-38
0.15778539 -0.01793848 0.79176205 1.834025e-38
0.15851757 -0.01793848 0.79176205 1.8985974e-38
0.15924975 -0.01793848 0.79176205 1.9262202e-38
0.15945818 -0.017879751 0.78916991 1.9447313e-38
0.16018796 -0.017879751 0.78916991 1.9539861e-38
0.16091774 -0.017879751 0.78916991 1.9449102e-38
0.16164753 -0.017879751 0.78916991 1.9725329e-38
0.16237733 -0.017879751 0.78916991 1.990972e-38
0.16313718 -0.017883047 0.78931546 2.0186664e-38
0.16331822 -0.017823147 0.78667152 2.0002989e-38
0.16404569 -0.017823147 0.78667152 1.9910795e-38
0.16477317 -0.017823147 0.78667152 1.9910795e-38
0.16524509 -0.017795626 0.78545684 2.0187033e-38
0.16597144 -0.017795626 0.78545684 2.0371795e-38
0.1666978 -0.017795626 0.78545684 2.0556538e-38
0.16688609 -0.017738435 0.78293258 2.0833118e-38
0.16761011 -0.017738435 0.78293258 2.1110063e-38
0.16833413 -0.017738435 0.78293258 2.1294812e-38
0.16905814 -0.017738435 0.78293258 2.1294807e-38
0.16978216 -0.017738435 0.78293258 2.1479194e-38
0.17075245 -0.017764056 0.7840634 2.1570674e-38
0.17147751 -0.017764056 0.7840634 2.157032e-38
0.17220257 -0.017764056 0.7840634 2.1662872e-38
0.17292763 -0.017764056 0.7840634 2.1755068e-38
0.17365269 -0.017764056 0.7840634 2.193838e-38
0.17443909 -0.017770302 0.78433913 2.2030575e-38
0.17512129 -0.017765928 0.78414607 2.203058e-38
0.17584643 -0.017765928 0.78414607 2.2306806e-38
0.17657156 -0.017765928 0.78414607 2.2583396e-38
0.17729671 -0.017765928 0.78414607 2.2767789e-38
0.17802185 -0.017765928 0.78414607 2.3044374e-38
0.17981876 -0.017872455 0.78884786 2.3043655e-38
0.18054825 -0.017872455 0.78884786 2.2952176e-38
0.18127775 -0.017872455 0.78884786 2.2768145e-38
0.18447758 -0.018115034 0.79955477 2.2583396e-38
0.18521698 -0.018115034 0.79955477 2.2399731e-38
0.14825727 -0.019337904 0.82005763 9.1237604e-39
0.14901562 -0.019337904 0.82005763 8.7549695e-39
0.14977397 -0.019337904 0.82005763 8.2017803e-39
0.15053232 -0.019337904 0.82005763 8.8460567e-39
0.14832121 -0.018958349 0.80396193 1.1704096e-38
0.14906467 -0.018958349 0.80396193 1.391605e-38
0.14980814 -0.018958349 0.80396193 1.4745072e-38
0.14916189 -0.01878335 0.79654074 1.5481541e-38
0.1498985 -0.01878335 0.79654074 1.5205665e-38
0.15063508 -0.01878335 0.79654074 1.5204935e-38
0.15137169 -0.01878335 0.79654074 1.5389313e-38
0.15137397 -0.01869267 0.79269534 1.6125428e-38
0.15210702 -0.01869267 0.79269534 1.6587478e-38
0.15284006 -0.01869267 0.79269534 1.6956617e-38
0.15295535 -0.018617477 0.78950667 1.732504e-38
0.15368545 -0.018617477 0.78950667 1.7601986e-38
0.15441555 -0.018617477 0.78950667 1.760198e-38
0.15474088 -0.018568907 0.78744698 1.7510141e-38
0.15546909 -0.018568907 0.78744698 1.7510491e-38
0.15619728 -0.018568907 0.78744698 1.797182e-38
0.15646383 -0.018514283 0.7851305 1.8340602e-38
0.15718988 -0.018514283 0.7851305 1.8893776e-38
0.15791593 -0.018514283 0.7851305 1.9171442e-38
0.15832815 -0.018477656 0.78357732 1.9447313e-38
0.15905276 -0.018477656 0.78357732 1.9356549e-38
0.15977737 -0.018477656 0.78357732 1.9541295e-38
0.16037177 -0.018462664 0.78294152 1.981788e-38
0.16109578 -0.018462664 0.78294152 1.9910076e-38
0.16181982 -0.018462664 0.78294152 2.0003345e-38
0.16224188 -0.018428365 0.78148705 2.0003341e-38
0.16296457 -0.018428365 0.78148705 2.0095541e-38
0.16368724 -0.018428365 0.78148705 2.0279579e-38
0.16440992 -0.018428365 0.78148705 2.0372143e-38
0.1651326 -0.018428365 0.78148705 2.064874e-38
0.16591072 -0.018434525 0.78174824 2.0649093e-38
0.16630644 -0.018398326 0.78021318 2.0833118e-38
0.16702794 -0.018398326 0.78021318 2.1017865e-38
0.16774943 -0.018398326 0.78021318 2.1478844e-38
0.16839664 -0.018390212 0.77986908 2.1479197e-38
0.16911782 -0.018390212 0.77986908 2.129516e-38
0.16983901 -0.018390212 0.77986908 2.1294807e-38
0.17024487 -0.018356213 0.7784273 2.1477769e-38
0.17096473 -0.018356213 0.7784273 2.157032e-38
0.17168458 -0.018356213 0.7784273 2.1755068e-38
0.17240442 -0.018356213 0.7784273 2.1939099e-38
0.17312428 -0.018356213 0.7784273 2.221569e-38
0.17396116 -0.01836857 0.77895135 2.2123491e-38
0.1746815 -0.01836857 0.77895135 2.2399358e-38
0.17540184 -0.01836857 0.77895135 2.2675948e-38
0.17619613 -0.018376283 0.7792784 2.3135851e-38
0.17691676 -0.018376283 0.7792784 2.3135851e-38
0.1776374 -0.018376283 0.7792784 2.3228047e-38
0.17865239 -0.018406611 0.78056449 2.3229119e-38
0.17937422 -0.018406611 0.78056449 2.2768495e-38
0.18009605 -0.018406611 0.78056449 2.2675942e-38
0.18191199 -0.018517988 0.78528762 2.2583749e-38
0.18263818 -0.018517988 0.78528762 2.2675948e-38
0.18703592 -0.018888775 0.80101156 2.2675593e-38
0.18777665 -0.018888775 0.80101156 2.249085e-38
0.14825727 -0.020096254 0.82005763 9.032634e-39
0.14901562 -0.020096254 0.82005763 8.9397139e-39
0.14977397 -0.020096254 0.82005763 9.1233638e-39
0.15053232 -0.020096254 0.82005763 1.1150928e-38
0.14832121 -0.019701814 0.80396193 1.3178488e-38
0.14906467 -0.019701814 0.80396193 1.4469204e-38
0.14980814 -0.019701814 0.80396193 1.5298229e-38
0.14916189 -0.019519951 0.79654074 1.5388974e-38
0.1498985 -0.019519951 0.79654074 1.5572996e-38
0.15063508 -0.019519951 0.79654074 1.5664467e-38
0.15137169 -0.019519951 0.79654074 1.5665173e-38
0.15137397 -0.019425716 0.79269534 1.6494561e-38
0.15210702 -0.019425716 0.79269534 1.6679671e-38
0.15284006 -0.019425716 0.79269534 1.7417592e-38
0.15295535 -0.019347575 0.78950667 1.7878567e-38
0.15368545 -0.019347575 0.78950667 1.7970763e-38
0.15441555 -0.019347575 0.78950667 1.7878565e-38
0.15474088 -0.019297101 0.78744698 1.7878562e-38
0.15546909 -0.019297101 0.78744698 1.7787798e-38
0.15619728 -0.019297101 0.78744698 1.7880347e-38
0.15646383 -0.019240333 0.7851305 1.8249128e-38
0.15718988 -0.019240333 0.7851305 1.8433518e-38
0.15791593 -0.019240333 0.7851305 1.9078887e-38
0.15832815 -0.019202271 0.78357732 1.9172161e-38
0.15905276 -0.019202271 0.78357732 1.9264351e-38
0.15977737 -0.019202271 0.78357732 1.9541651e-38
0.16037177 -0.01918669 0.78294152 1.9726764e-38
0.16109578 -0.01918669 0.78294152 1.9910795e-38
0.16181982 -0.01918669 0.78294152 2.0002989e-38
0.16224188 -0.019151047 0.78148705 1.9912226e-38
0.16296457 -0.019151047 0.78148705 2.0188455e-38
0.16368724 -0.019151047 0.78148705 2.0465046e-38
0.16440992 -0.019151047 0.78148705 2.0649443e-38
0.1651326 -0.019151047 0.78148705 2.0925317e-38
0.16591072 -0.019157447 0.78174824 2.0925673e-38
0.16630644 -0.019119829 0.78021318 2.0925673e-38
0.16702794 -0.019119829 0.78021318 2.1017865e-38
0.16774943 -0.019119829 0.78021318 2.1202617e-38
0.16839664 -0.019111397 0.77986908 2.129481e-38
0.16911782 -0.019111397 0.77986908 2.1202611e-38
0.16983901 -0.019111397 0.77986908 2.1202614e-38
0.17024487 -0.019076064 0.7784273 2.1478844e-38
0.17096473 -0.019076064 0.7784273 2.1571039e-38
0.17168458 -0.019076064 0.7784273 2.1755786e-38
0.17240442 -0.019076064 0.7784273 2.1940182e-38
0.17312428 -0.019076064 0.7784273 2.2307885e-38
0.17396116 -0.019088907 0.77895135 2.2307885e-38
0.1746815 -0.019088907 0.77895135 2.2584471e-38
0.17540184 -0.019088907 0.77895135 2.3044374e-38
0.17619613 -0.019096922 0.7792784 2.3136573e-38
0.17691676 -0.019096922 0.7792784 2.3044374e-38
0.1776374 -0.019096922 0.7792784 2.3044374e-38
0.17865239 -0.019128438 0.78056449 2.3229116e-38
0.17937422 -0.019128438 0.78056449 2.2768848e-38
0.18009605 -0.019128438 0.78056449 2.2676651e-38
0.18191199 -0.019244183 0.78528762 2.25841e-38
0.18263818 -0.019244183 0.78528762 2.2584102e-38
0.18703592 -0.019629512 0.80101156 2.2583749e-38
0.18777665 -0.019629512 0.80101156 2.24912e-38
0.14825727 -0.020854603 0.82005763 7.5574983e-39
0.14901562 -0.020854603 0.82005763 9.8609443e-39
0.14977397 -0.020854603 0.82005763 1.152008e-38
0.15053232 -0.020854603 0.82005763 1.3730952e-38
0.14832121 -0.020445278 0.80396193 1.446921e-38
0.14906467 -0.020445278 0.80396193 1.5113835e-38
0.14980814 -0.020445278 0.80396193 1.5296779e-38
0.14916189 -0.020256553 0.79654074 1.5572277e-38
0.1498985 -0.020256553 0.79654074 1.5848135e-38
0.15063508 -0.020256553 0.79654074 1.6308746e-38
0.15137169 -0.020256553 0.79654074 1.6494205e-38
0.15137397 -0.020158762 0.79269534 1.6771501e-38
0.15210702 -0.020158762 0.79269534 1.7232479e-38
0.15284006 -0.020158762 0.79269534 1.7969688e-38
0.15295535 -0.020077672 0.78950667 1.8062237e-38
0.15368545 -0.020077672 0.78950667 1.8062593e-38
0.15441555 -0.020077672 0.78950667 1.7878562e-38
0.15474088 -0.020025292 0.78744698 1.8063312e-38
0.15546909 -0.020025292 0.78744698 1.7972192e-38
0.15619728 -0.020025292 0.78744698 1.7972548e-38
0.15646383 -0.019966383 0.7851305 1.8248774e-38
0.15718988 -0.019966383 0.7851305 1.8525716e-38
0.15791593 -0.019966383 0.7851305 1.8711182e-38
0.15832815 -0.019926885 0.78357732 1.9172158e-38
0.15905276 -0.019926885 0.78357732 1.9541295e-38
0.15977737 -0.019926885 0.78357732 1.9817878e-38
0.16037177 -0.019910716 0.78294152 2.0002992e-38
0.16109578 -0.019910716 0.78294152 2.009519e-38
0.16181982 -0.019910716 0.78294152 1.972748e-38
0.16224188 -0.019873727 0.78148705 2.0004424e-38
0.16296457 -0.019873727 0.78148705 2.0280651e-38
0.16368724 -0.019873727 0.78148705 2.0372846e-38
0.16440992 -0.019873727 0.78148705 2.0557242e-38
0.1651326 -0.019873727 0.78148705 2.1017865e-38
0.16591072 -0.019880369 0.78174824 2.1017865e-38
0.16630644 -0.019841332 0.78021318 2.1017868e-38
0.16702794 -0.019841332 0.78021318 2.1017865e-38
0.16774943 -0.019841332 0.78021318 2.1294812e-38
0.16839664 -0.019832581 0.77986908 2.1478844e-38
0.16911782 -0.019832581 0.77986908 2.1571042e-38
0.16983901 -0.019832581 0.77986908 2.1478844e-38
0.17024487 -0.019795917 0.7784273 2.1478844e-38
0.17096473 -0.019795917 0.7784273 2.1755432e-38
0.17168458 -0.019795917 0.7784273 2.2124213e-38
0.17240442 -0.019795917 0.7784273 2.24008e-38
0.17312428 -0.019795917 0.7784273 2.2584116e-38
0.17396116 -0.019809242 0.77895135 2.2861062e-38
0.1746815 -0.019809242 0.77895135 2.3045456e-38
0.17540184 -0.019809242 0.77895135 2.2952905e-38
0.17619613 -0.019817561 0.7792784 2.3228415e-38
0.17691676 -0.019817561 0.7792784 2.3228768e-38
0.1776374 -0.019817561 0.7792784 2.313657e-38
0.17865239 -0.019850267 0.78056449 2.3229472e-38
0.17937422 -0.019850267 0.78056449 2.2768845e-38
0.18009605 -0.019850267 0.78056449 2.2676646e-38
0.18191199 -0.019970378 0.78528762 2.2583731e-38
0.18263818 -0.019970378 0.78528762 2.2491182e-38
0.18703592 -0.020370249 0.80101156 2.2583384e-38
0.18777665 -0.020370249 0.80101156 2.2583028e-38
0.14737271 -0.021932753 0.83219177 2.3974423e-39
0.14814228 -0.021932753 0.83219177 2.3048879e-39
0.14891185 -0.021932753 0.83219177 1.2903661e-39
0.14968142 -0.021932753 0.83219177 2.4885435e-39
0.15045099 -0.021932753 0.83219177 7.0039588e-39
0.14675373 -0.021284891 0.80761003 1.1427178e-38
0.14750056 -0.021284891 0.80761003 1.4468167e-38
0.14824741 -0.021284891 0.80761003 1.4927678e-38
0.14762537 -0.021089338 0.80019021 1.4928014e-38
0.14836535 -0.021089338 0.80019021 1.4743961e-38
0.14910533 -0.021089338 0.80019021 1.5112015e-38
0.1498453 -0.021089338 0.80019021 1.548043e-38
0.14959599 -0.020950789 0.79493326 1.5756288e-38
0.15033109 -0.020950789 0.79493326 1.6216901e-38
0.15106621 -0.020950789 0.79493326 1.6494557e-38
0.15117814 -0.020864781 0.79166985 1.7048084e-38
0.15191023 -0.020864781 0.79166985 1.7324672e-38
0.15264234 -0.020864781 0.79166985 1.7970044e-38
0.15262081 -0.020762259 0.78777987 1.797076e-38
0.15334931 -0.020762259 0.78777987 1.7878562e-38
0.15407781 -0.020762259 0.78777987 1.7510138e-38
0.15421972 -0.020683587 0.78479481 1.7695605e-38
0.15494545 -0.020683587 0.78479481 1.7972548e-38
0.15567119 -0.020683587 0.78479481 1.7973264e-38
0.15621419 -0.020659419 0.78387785 1.8158013e-38
0.15693909 -0.020659419 0.78387785 1.8250209e-38
0.15766399 -0.020659419 0.78387785 1.8618984e-38
0.15818846 -0.020633278 0.78288597 1.8988843e-38
0.15891244 -0.020633278 0.78288597 1.9450174e-38
0.15963641 -0.020633278 0.78288597 1.9726758e-38
0.16029365 -0.020624693 0.78256023 2.0002989e-38
0.16101733 -0.020624693 0.78256023 1.9911875e-38
0.161741 -0.020624693 0.78256023 1.981968e-38
0.16183452 -0.020544695 0.77952486 1.9912591e-38
0.16255538 -0.020544695 0.77952486 2.0189537e-38
0.16327626 -0.020544695 0.77952486 2.0465765e-38
0.16399711 -0.020544695 0.77952486 2.0557964e-38
0.16471799 -0.020544695 0.77952486 2.0742358e-38
0.16553308 -0.020556396 0.77996886 2.0834553e-38
0.16590449 -0.020513138 0.77832752 2.0742358e-38
0.16662426 -0.020513138 0.77832752 2.0834553e-38
0.16734402 -0.020513138 0.77832752 2.1203333e-38
0.16806377 -0.020513138 0.77832752 2.1295531e-38
0.16878353 -0.020513138 0.77832752 2.1387727e-38
0.16952579 -0.020515861 0.77843082 2.1479923e-38
0.16980074 -0.020462247 0.77639657 2.1663235e-38
0.17051873 -0.020462247 0.77639657 2.1847986e-38
0.17123669 -0.020462247 0.77639657 2.2216409e-38
0.17195466 -0.020462247 0.77639657 2.24008e-38
0.17267264 -0.020462247 0.77639657 2.2953974e-38
0.17382333 -0.020513313 0.77833414 2.3046172e-38
0.1745431 -0.020513313 0.77833414 2.3229489e-38
0.17526285 -0.020513313 0.77833414 2.3045456e-38
0.1761457 -0.020532321 0.77905542 2.3045456e-38
0.17686614 -0.020532321 0.77905542 2.304545e-38
0.17758657 -0.020532321 0.77905542 2.3136923e-38
0.17872348 -0.020580281 0.78087509 2.3044722e-38
0.17944559 -0.020580281 0.78087509 2.2768848e-38
0.1801677 -0.020580281 0.78087509 2.2768848e-38
0.18100183 -0.020593023 0.7813586 2.2859961e-38
0.1817244 -0.020593023 0.7813586 2.2767768e-38
0.18364355 -0.020728085 0.78648323 2.2491185e-38
0.18437086 -0.020728085 0.78648323 2.2490832e-38
0.18509816 -0.020728085 0.78648323 2.2306088e-38
0.18995725 -0.021188969 0.80397052 2.2213895e-38
0.14737271 -0.022702323 0.83219177 1.8449888e-39
0.14814228 -0.022702323 0.83219177 1.3840106e-39
0.14891185 -0.022702323 0.83219177 2.2134014e-39
0.14968142 -0.022702323 0.83219177 5.4384435e-39
0.15045099 -0.022702323 0.83219177 1.0598862e-38
0.14675373 -0.022031728 0.80761003 1.4467464e-38
0.14750056 -0.022031728 0.80761003 1.5203917e-38
0.14824741 -0.022031728 0.80761003 1.5570514e-38
0.14762537 -0.021829315 0.80019021 1.5018399e-38
0.14836535 -0.021829315 0.80019021 1.5110217e-38
0.14910533 -0.021829315 0.80019021 1.5295317e-38
0.1498453 -0.021829315 0.80019021 1.5480061e-38
0.14959599 -0.021685904 0.79493326 1.5756639e-38
0.15033109 -0.021685904 0.79493326 1.6217251e-38
0.15106621 -0.021685904 0.79493326 1.6402714e-38
0.15117814 -0.021596879 0.79166985 1.686405e-38
0.15191023 -0.021596879 0.79166985 1.7232476e-38
0.15264234 -0.021596879 0.79166985 1.7509066e-38
0.15262081 -0.021490758 0.78777987 1.7510141e-38
0.15334931 -0.021490758 0.78777987 1.7510141e-38
0.15407781 -0.021490758 0.78777987 1.723463e-38
0.15421972 -0.021409325 0.78479481 1.7510854e-38
0.15494545 -0.021409325 0.78479481 1.7604486e-38
0.15567119 -0.021409325 0.78479481 1.7512288e-38
0.15621419 -0.021384312 0.78387785 1.7604839e-38
0.15693909 -0.021384312 0.78387785 1.7881066e-38
0.15766399 -0.021384312 0.78387785 1.8158726e-38
0.15818846 -0.021357253 0.78288597 1.8804451e-38
0.15891244 -0.021357253 0.78288597 1.9450174e-38
0.15963641 -0.021357253 0.78288597 1.9634918e-38
0.16029365 -0.021348367 0.78256023 1.9635281e-38
0.16101733 -0.021348367 0.78256023 1.9727483e-38
0.161741 -0.021348367 0.78256023 1.9636367e-38
0.16183452 -0.021265561 0.77952486 2.0096988e-38
0.16255538 -0.021265561 0.77952486 2.0465768e-38
0.16327626 -0.021265561 0.77952486 2.0557964e-38
0.16399711 -0.021265561 0.77952486 2.0557966e-38
0.16471799 -0.021265561 0.77952486 2.0649806e-38
0.16553308 -0.021277674 0.77996886 2.0650162e-38
0.16590449 -0.021232897 0.77832752 2.0650162e-38
0.16662426 -0.021232897 0.77832752 2.083455e-38
0.16734402 -0.021232897 0.77832752 2.0927106e-38
0.16806377 -0.021232897 0.77832752 2.1111137e-38
0.16878353 -0.021232897 0.77832752 2.1387727e-38
0.16952579 -0.021235716 0.77843082 2.1756151e-38
0.16980074 -0.02118022 0.77639657 2.1940182e-38
0.17051873 -0.02118022 0.77639657 2.1940182e-38
0.17123669 -0.02118022 0.77639657 2.2216409e-38
0.17195466 -0.02118022 0.77639657 2.2492997e-38
0.17267264 -0.02118022 0.77639657 2.3046169e-38
0.17382333 -0.021233078 0.77833414 2.3138369e-38
0.1745431 -0.021233078 0.77833414 2.3229489e-38
0.17526285 -0.021233078 0.77833414 2.3045453e-38
0.1761457 -0.021252755 0.77905542 2.2953255e-38
0.17686614 -0.021252755 0.77905542 2.2953608e-38
0.17758657 -0.021252755 0.77905542 2.3137276e-38
0.17872348 -0.021302395 0.78087509 2.3044722e-38
0.17944559 -0.021302395 0.78087509 2.3044722e-38
0.1801677 -0.021302395 0.78087509 2.3045078e-38
0.18100183 -0.021315586 0.7813586 2.3136554e-38
0.1817244 -0.021315586 0.7813586 2.2952163e-38
0.18364355 -0.021455387 0.78648323 2.2767412e-38
0.18437086 -0.021455387 0.78648323 2.2490832e-38
0.18509816 -0.021455387 0.78648323 2.2398283e-38
0.18995725 -0.021932442 0.80397052 2.2306809e-38
0.14737271 -0.023471892 0.83219177 3.5959827e-39
0.14814228 -0.023471892 0.83219177 4.1491537e-39
0.14891185 -0.023471892 0.83219177 8.2961465e-39
0.14968142 -0.023471892 0.83219177 1.2259463e-38
0.15045099 -0.023471892 0.83219177 1.4469615e-38
0.14675373 -0.022778567 0.80761003 1.4742943e-38
0.14750056 -0.022778567 0.80761003 1.5387204e-38
0.14824741 -0.022778567 0.80761003 1.5477573e-38
0.14762537 -0.022569291 0.80019021 1.5293889e-38
0.14836535 -0.022569291 0.80019021 1.5478629e-38
0.14910533 -0.022569291 0.80019021 1.5570822e-38
0.1498453 -0.022569291 0.80019021 1.5755569e-38
0.14959599 -0.022421019 0.79493326 1.6216901e-38
0.15033109 -0.022421019 0.79493326 1.6401645e-38
0.15106621 -0.022421019 0.79493326 1.621833e-38
0.15117814 -0.022328977 0.79166985 1.6679305e-38
0.15191023 -0.022328977 0.79166985 1.6956611e-38
0.15264234 -0.022328977 0.79166985 1.6956611e-38
0.15262081 -0.022219259 0.78777987 1.6864771e-38
0.15334931 -0.022219259 0.78777987 1.686549e-38
0.15407781 -0.022219259 0.78777987 1.704988e-38
0.15421972 -0.022135066 0.78479481 1.7235346e-38
0.15494545 -0.022135066 0.78479481 1.7235699e-38
0.15567119 -0.022135066 0.78479481 1.6960189e-38
0.15621419 -0.022109203 0.78387785 1.714458e-38
0.15693909 -0.022109203 0.78387785 1.7420808e-38
0.15766399 -0.022109203 0.78387785 1.8066531e-38
0.15818846 -0.022081228 0.78288597 1.8621139e-38
0.15891244 -0.022081228 0.78288597 1.9174307e-38
0.15963641 -0.022081228 0.78288597 1.9266856e-38
0.16029365 -0.02207204 0.78256023 1.9359055e-38
0.16101733 -0.02207204 0.78256023 1.9451616e-38
0.161741 -0.02207204 0.78256023 1.9543814e-38
0.16183452 -0.021986427 0.77952486 2.0096632e-38
0.16255538 -0.021986427 0.77952486 2.0465412e-38
0.16327626 -0.021986427 0.77952486 2.0557966e-38
0.16399711 -0.021986427 0.77952486 2.02821e-38
0.16471799 -0.021986427 0.77952486 2.0282103e-38
0.16553308 -0.021998951 0.77996886 2.02821e-38
0.16590449 -0.021952657 0.77832752 2.02821e-38
0.16662426 -0.021952657 0.77832752 2.0466847e-38
0.16734402 -0.021952657 0.77832752 2.0650878e-38
0.16806377 -0.021952657 0.77832752 2.1020021e-38
0.16878353 -0.021952657 0.77832752 2.1756151e-38
0.16952579 -0.02195557 0.77843082 2.2125292e-38
0.16980074 -0.021898195 0.77639657 2.2125292e-38
0.17051873 -0.021898195 0.77639657 2.2033096e-38
0.17123669 -0.021898195 0.77639657 2.2125292e-38
0.17195466 -0.021898195 0.77639657 2.240152e-38
0.17267264 -0.021898195 0.77639657 2.2861778e-38
0.17382333 -0.021952843 0.77833414 2.3046169e-38
0.1745431 -0.021952843 0.77833414 2.3046172e-38
0.17526285 -0.021952843 0.77833414 2.2861778e-38
0.1761457 -0.021973187 0.77905542 2.2861775e-38
0.17686614 -0.021973187 0.77905542 2.2953608e-38
0.17758657 -0.021973187 0.77905542 2.2953605e-38
0.17872348 -0.02202451 0.78087509 2.304616e-38
0.17944559 -0.02202451 0.78087509 2.3321667e-38
0.1801677 -0.02202451 0.78087509 2.3229472e-38
0.18100183 -0.022038149 0.7813586 2.3137276e-38
0.1817244 -0.022038149 0.7813586 2.3044722e-38
0.18364355 -0.022182688 0.78648323 2.2951807e-38
0.18437086 -0.022182688 0.78648323 2.2859613e-38
0.18509816 -0.022182688 0.78648323 2.258303e-38
0.18995725 -0.022675915 0.80397052 2.2491554e-38
0.14470506 -0.023556635 0.80868214 1.345765e-38
0.14545289 -0.023556635 0.80868214 1.4930242e-38
0.14620072 -0.023556635 0.80868214 1.4743662e-38
0.14525171 -0.023284623 0.79934418 1.5202453e-38
0.14599089 -0.023284623 0.79934418 1.5201709e-38
0.1467301 -0.023284623 0.79934418 1.5292799e-38
0.14746928 -0.023284623 0.79934418 1.5661576e-38
0.14746433 -0.023167713 0.7953307 1.5846323e-38
0.14819981 -0.023167713 0.7953307 1.5938519e-38
0.1489353 -0.023167713 0.7953307 1.6306945e-38
0.14908136 -0.023076477 0.7921986 1.6492409e-38
0.14981394 -0.023076477 0.7921986 1.6584601e-38
0.15054652 -0.023076477 0.7921986 1.6401289e-38
0.15058418 -0.022970468 0.78855944 1.6586759e-38
0.15131339 -0.022970468 0.78855944 1.6772223e-38
0.15204261 -0.022970468 0.78855944 1.6864415e-38
0.15177466 -0.022820534 0.78341234 1.6404513e-38
0.15249912 -0.022820534 0.78341234 1.6312318e-38
0.15322359 -0.022820534 0.78341234 1.640523e-38
0.15394804 -0.022820534 0.78341234 1.6774369e-38
0.15404607 -0.02272811 0.78023946 1.6867637e-38
0.1547676 -0.02272811 0.78023946 1.6960189e-38
0.15548913 -0.02272811 0.78023946 1.7420808e-38
0.15619554 -0.02272591 0.78016394 1.7513362e-38
0.15691699 -0.02272591 0.78016394 1.806761e-38
0.15763845 -0.02272591 0.78016394 1.8897366e-38
0.1583599 -0.02272591 0.78016394 1.9174307e-38
0.15908137 -0.02272591 0.78016394 1.9266856e-38
0.15965785 -0.022705294 0.7794562 1.9267578e-38
0.16037865 -0.022705294 0.7794562 1.9451616e-38
0.16109946 -0.022705294 0.7794562 1.9636014e-38
0.16182026 -0.022705294 0.7794562 2.0004442e-38
0.16173358 -0.022592498 0.77558398 2.0281028e-38
0.16245081 -0.022592498 0.77558398 2.0281384e-38
0.16316803 -0.022592498 0.77558398 2.0097351e-38
0.16388525 -0.022592498 0.77558398 2.0189907e-38
0.16460247 -0.022592498 0.77558398 2.0189904e-38
0.16538891 -0.022601957 0.77590871 2.02821e-38
0.16564666 -0.022539394 0.77376097 2.0466847e-38
0.16636218 -0.022539394 0.77376097 2.0835271e-38
0.16707772 -0.022539394 0.77376097 2.1388446e-38
0.16779326 -0.022539394 0.77376097 2.203274e-38
0.1685088 -0.022539394 0.77376097 2.2217488e-38
0.16933471 -0.022554094 0.77426565 2.2125292e-38
0.16949569 -0.02248048 0.77173853 2.2033096e-38
0.17020935 -0.02248048 0.77173853 2.2217488e-38
0.17092301 -0.02248048 0.77173853 2.240152e-38
0.17163669 -0.02248048 0.77173853 2.2585195e-38
0.17235035 -0.02248048 0.77173853 2.2861778e-38
0.17369235 -0.0225621 0.77454042 2.2953974e-38
0.1744086 -0.0225621 0.77454042 2.295433e-38
0.17551026 -0.022611752 0.776245 2.2954327e-38
0.17622809 -0.022611752 0.776245 2.3046522e-38
0.17694592 -0.022611752 0.776245 2.3229835e-38
0.17832249 -0.022695592 0.77912313 2.3229835e-38
0.17904299 -0.022695592 0.77912313 2.3413867e-38
0.1797635 -0.022695592 0.77912313 2.3413867e-38
0.18055636 -0.022704693 0.77943558 2.3321314e-38
0.18127714 -0.022704693 0.77943558 2.3229119e-38
0.18199793 -0.022704693 0.77943558 2.32284e-38
0.18306392 -0.022747589 0.78090817 2.3136201e-38
0.18378608 -0.022747589 0.78090817 2.295181e-38
0.18607709 -0.02294101 0.78754818 2.2859613e-38
0.18680537 -0.02294101 0.78754818 2.258303e-38
0.18753365 -0.02294101 0.78754818 2.2399355e-38
0.14470506 -0.024304466 0.80868214 1.4561827e-38
0.14545289 -0.024304466 0.80868214 1.4375971e-38
0.14620072 -0.024304466 0.80868214 1.4467059e-38
0.14525171 -0.024023818 0.79934418 1.4741102e-38
0.14599089 -0.024023818 0.79934418 1.5109143e-38
0.1467301 -0.024023818 0.79934418 1.5384992e-38
0.14746928 -0.024023818 0.79934418 1.5661576e-38
0.14746433 -0.023903197 0.7953307 1.5846323e-38
0.14819981 -0.023903197 0.7953307 1.6306942e-38
0.1489353 -0.023903197 0.7953307 1.6492053e-38
0.14908136 -0.023809062 0.7921986 1.6492409e-38
0.14981394 -0.023809062 0.7921986 1.6492406e-38
0.15054652 -0.023809062 0.7921986 1.6125784e-38
0.15058418 -0.02369969 0.78855944 1.6310896e-38
0.15131339 -0.02369969 0.78855944 1.6679671e-38
0.15204261 -0.02369969 0.78855944 1.6680024e-38
0.15177466 -0.023544997 0.78341234 1.6312318e-38
0.15249912 -0.023544997 0.78341234 1.6312315e-38
0.15322359 -0.023544997 0.78341234 1.6129e-38
0.15394804 -0.023544997 0.78341234 1.6497778e-38
0.15404607 -0.023449637 0.78023946 1.6683246e-38
0.1547676 -0.023449637 0.78023946 1.6867993e-38
0.15548913 -0.023449637 0.78023946 1.7144936e-38
0.15619554 -0.023447368 0.78016394 1.7605555e-38
0.15691699 -0.023447368 0.78016394 1.8251999e-38
0.15763845 -0.023447368 0.78016394 1.8897366e-38
0.1583599 -0.023447368 0.78016394 1.9174307e-38
0.15908137 -0.023447368 0.78016394 1.9266859e-38
0.15965785 -0.023426097 0.7794562 1.9359418e-38
0.16037865 -0.023426097 0.7794562 1.9543814e-38
0.16109946 -0.023426097 0.7794562 1.9820045e-38
0.16182026 -0.023426097 0.7794562 2.0004442e-38
0.16173358 -0.023309719 0.77558398 2.0281028e-38
0.16245081 -0.023309719 0.77558398 2.0281384e-38
0.16316803 -0.023309719 0.77558398 2.0189907e-38
0.16388525 -0.023309719 0.77558398 2.0374298e-38
0.16460247 -0.023309719 0.77558398 2.0466494e-38
0.16538891 -0.023319479 0.77590871 2.0650881e-38
0.16564666 -0.023254931 0.77376097 2.0743076e-38
0.16636218 -0.023254931 0.77376097 2.1020021e-38
0.16707772 -0.023254931 0.77376097 2.1480643e-38
0.16779326 -0.023254931 0.77376097 2.1757233e-38
0.1685088 -0.023254931 0.77376097 2.1757233e-38
0.16933471 -0.023270098 0.77426565 2.1940901e-38
0.16949569 -0.023194147 0.77173853 2.2125292e-38
0.17020935 -0.023194147 0.77173853 2.240152e-38
0.17092301 -0.023194147 0.77173853 2.258627e-38
0.17163669 -0.023194147 0.77173853 2.2493719e-38
0.17235035 -0.023194147 0.77173853 2.2678466e-38
0.17369235 -0.023278356 0.77454042 2.2678466e-38
0.1744086 -0.023278356 0.77454042 2.2770659e-38
0.17551026 -0.023329586 0.776245 2.3046525e-38
0.17622809 -0.023329586 0.776245 2.3138722e-38
0.17694592 -0.023329586 0.776245 2.3046525e-38
0.17832249 -0.023416087 0.77912313 2.3045804e-38
0.17904299 -0.023416087 0.77912313 2.3229835e-38
0.1797635 -0.023416087 0.77912313 2.3322035e-38
0.18055636 -0.023425477 0.77943558 2.3413511e-38
0.18127714 -0.023425477 0.77943558 2.3321314e-38
0.18199793 -0.023425477 0.77943558 2.3229119e-38
0.18306392 -0.023469735 0.78090817 2.3229119e-38
0.18378608 -0.023469735 0.78090817 2.3412428e-38
0.18607709 -0.023669297 0.78754818 2.3228397e-38
0.18680537 -0.023669297 0.78754818 2.2859613e-38
0.18753365 -0.023669297 0.78754818 2.2307157e-38
0.14470506 -0.025052296 0.80868214 1.363698e-38
0.14545289 -0.025052296 0.80868214 1.4375236e-38
0.14620072 -0.025052296 0.80868214 1.465e-38
0.14525171 -0.024763012 0.79934418 1.5017316e-38
0.14599089 -0.024763012 0.79934418 1.5569756e-38
0.1467301 -0.024763012 0.79934418 1.5845248e-38
0.14746928 -0.024763012 0.79934418 1.5845604e-38
0.14746433 -0.024638679 0.7953307 1.6214027e-38
0.14819981 -0.024638679 0.7953307 1.6399138e-38
0.1489353 -0.024638679 0.7953307 1.6492053e-38
0.14908136 -0.024541648 0.7921986 1.6492409e-38
0.14981394 -0.024541648 0.7921986 1.6308377e-38
0.15054652 -0.024541648 0.7921986 1.6217624e-38
0.15058418 -0.024428912 0.78855944 1.6402738e-38
0.15131339 -0.024428912 0.78855944 1.6587478e-38
0.15204261 -0.024428912 0.78855944 1.6311244e-38
0.15177466 -0.024269458 0.78341234 1.6220121e-38
0.15249912 -0.024269458 0.78341234 1.6312315e-38
0.15322359 -0.024269458 0.78341234 1.6405585e-38
0.15394804 -0.024269458 0.78341234 1.6497778e-38
0.15404607 -0.024171164 0.78023946 1.6407018e-38
0.1547676 -0.024171164 0.78023946 1.6683243e-38
0.15548913 -0.024171164 0.78023946 1.686799e-38
0.15619554 -0.024168825 0.78016394 1.7605911e-38
0.15691699 -0.024168825 0.78016394 1.8067965e-38
0.15763845 -0.024168825 0.78016394 1.8621139e-38
0.1583599 -0.024168825 0.78016394 1.9082113e-38
0.15908137 -0.024168825 0.78016394 1.9266506e-38
0.15965785 -0.0241469 0.7794562 1.9267228e-38
0.16037865 -0.0241469 0.7794562 1.9451263e-38
0.16109946 -0.0241469 0.7794562 1.9820048e-38
0.16182026 -0.0241469 0.7794562 2.0096282e-38
0.16173358 -0.024026942 0.77558398 2.0281028e-38
0.16245081 -0.024026942 0.77558398 2.0281384e-38
0.16316803 -0.024026942 0.77558398 2.0189907e-38
0.16388525 -0.024026942 0.77558398 2.0374301e-38
0.16460247 -0.024026942 0.77558398 2.0742721e-38
0.16538891 -0.024037002 0.77590871 2.0835276e-38
0.16564666 -0.023970466 0.77376097 2.1019665e-38
0.16636218 -0.023970466 0.77376097 2.111186e-38
0.16707772 -0.023970466 0.77376097 2.138809e-38
0.16779326 -0.023970466 0.77376097 2.148029e-38
0.1685088 -0.023970466 0.77376097 2.1480646e-38
0.16933471 -0.023986101 0.77426565 2.1848349e-38
0.16949569 -0.023907812 0.77173853 2.2217488e-38
0.17020935 -0.023907812 0.77173853 2.2493716e-38
0.17092301 -0.023907812 0.77173853 2.2493716e-38
0.17163669 -0.023907812 0.77173853 2.2493719e-38
0.17235035 -0.023907812 0.77173853 2.258627e-38
0.17369235 -0.023994613 0.77454042 2.2678466e-38
0.1744086 -0.023994613 0.77454042 2.258627e-38
0.17551026 -0.024047419 0.776245 2.2953974e-38
0.17622809 -0.024047419 0.776245 2.3046169e-38
0.17694592 -0.024047419 0.776245 2.3046169e-38
0.17832249 -0.024136582 0.77912313 2.3046525e-38
0.17904299 -0.024136582 0.77912313 2.3322035e-38
0.1797635 -0.024136582 0.77912313 2.341423e-38
0.18055636 -0.024146261 0.77943558 2.350571e-38
0.18127714 -0.024146261 0.77943558 2.3321317e-38
0.18199793 -0.024146261 0.77943558 2.3229121e-38
0.18306392 -0.024191881 0.78090817 2.3413511e-38
0.18378608 -0.024191881 0.78090817 2.3504988e-38
0.18607709 -0.024397584 0.78754818 2.3504982e-38
0.18680537 -0.024397584 0.78754818 2.3227318e-38
0.18753365 -0.024397584 0.78754818 2.2676298e-38
0.14393163 -0.02620391 0.82133847 1.0780771e-38
0.14469117 -0.02620391 0.82133847 1.0963717e-38
0.1454507 -0.02620391 0.82133847 1.1516876e-38
0.14621024 -0.02620391 0.82133847 1.2990911e-38
0.14336383 -0.02556099 0.80118674 1.4005394e-38
0.14410473 -0.02556099 0.80118674 1.4374144e-38
0.14484562 -0.02556099 0.80118674 1.4742185e-38
0.14558652 -0.02556099 0.80118674 1.5293539e-38
0.14516182 -0.025357379 0.79480469 1.5845983e-38
0.14589681 -0.025357379 0.79480469 1.6029282e-38
0.14663181 -0.025357379 0.79480469 1.5845967e-38
0.14712334 -0.025315484 0.79349154 1.5846323e-38
0.14785711 -0.025315484 0.79349154 1.5847042e-38
0.14859089 -0.025315484 0.79349154 1.5755567e-38
0.14897731 -0.025256595 0.79164571 1.5848118e-38
0.14970937 -0.025256595 0.79164571 1.6124702e-38
0.15044145 -0.025256595 0.79164571 1.6125784e-38
0.15043384 -0.025133014 0.78777218 1.6310896e-38
0.15116233 -0.025133014 0.78777218 1.640381e-38
0.15189083 -0.025133014 0.78777218 1.6219419e-38
0.15169731 -0.02498118 0.78301311 1.6035737e-38
0.1524214 -0.02498118 0.78301311 1.6312315e-38
0.15314551 -0.02498118 0.78301311 1.6589977e-38
0.1538696 -0.02498118 0.78301311 1.6682528e-38
0.15411715 -0.024904177 0.78059947 1.6407018e-38
0.15483901 -0.024904177 0.78059947 1.6683599e-38
0.15556087 -0.024904177 0.78059947 1.7144936e-38
0.15617059 -0.024886306 0.78003937 1.7698107e-38
0.15689194 -0.024886306 0.78003937 1.7975414e-38
0.15761328 -0.024886306 0.78003937 1.8528585e-38
0.15816863 -0.024860216 0.77922159 1.8806249e-38
0.15888922 -0.024860216 0.77922159 1.8990642e-38
0.15960979 -0.024860216 0.77922159 1.9174673e-38
0.15995897 -0.024802625 0.77741647 1.9266872e-38
0.16067788 -0.024802625 0.77741647 1.9636014e-38
0.1613968 -0.024802625 0.77741647 2.0004439e-38
0.16138662 -0.024691081 0.77392018 2.0188831e-38
0.16210231 -0.024691081 0.77392018 2.0096632e-38
0.162818 -0.024691081 0.77392018 1.9821124e-38
0.16343881 -0.024676755 0.77347118 2.02821e-38
0.16415407 -0.024676755 0.77347118 2.0650881e-38
0.16486934 -0.024676755 0.77347118 2.0835271e-38
0.16532294 -0.024637761 0.77224892 2.1020021e-38
0.16603708 -0.024637761 0.77224892 2.1388443e-38
0.16675122 -0.024637761 0.77224892 2.129625e-38
0.16746536 -0.024637761 0.77224892 2.1295897e-38
0.1681795 -0.024637761 0.77224892 2.138809e-38
0.16936509 -0.024706535 0.77440459 2.1665037e-38
0.1697998 -0.024665656 0.77312326 2.2126015e-38
0.17051476 -0.024665656 0.77312326 2.2218208e-38
0.17122971 -0.024665656 0.77312326 2.2126015e-38
0.17194465 -0.024665656 0.77312326 2.2218211e-38
0.17265959 -0.024665656 0.77312326 2.2402599e-38
0.17362827 -0.024701755 0.77425474 2.2586267e-38
0.17434427 -0.024701755 0.77425474 2.2494069e-38
0.17519967 -0.024721425 0.77487129 2.2494069e-38
0.17591622 -0.024721425 0.77487129 2.2678463e-38
0.17663279 -0.024721425 0.77487129 2.2862857e-38
0.17799583 -0.02481154 0.77769583 2.3230565e-38
0.17871501 -0.02481154 0.77769583 2.332276e-38
0.17943418 -0.02481154 0.77769583 2.3506792e-38
0.18038279 -0.024843138 0.77868629 2.3414233e-38
0.18110289 -0.024843138 0.77868629 2.3229482e-38
0.18182297 -0.024843138 0.77868629 2.3321317e-38
0.18263653 -0.024855858 0.77908498 2.350607e-38
0.18335699 -0.024855858 0.77908498 2.350607e-38
0.18407744 -0.024855858 0.77908498 2.3504627e-38
0.18552291 -0.024953373 0.78214151 2.3504627e-38
0.1862462 -0.024953373 0.78214151 2.2768495e-38
0.18981884 -0.025333656 0.79406112 2.230751e-38
0.19055316 -0.025333656 0.79406112 2.1478828e-38
0.14393163 -0.026963444 0.82133847 1.0317276e-38
0.14469117 -0.026963444 0.82133847 1.0500941e-38
0.1454507 -0.026963444 0.82133847 1.1331042e-38
0.14621024 -0.026963444 0.82133847 1.3173856e-38
0.14336383 -0.026301889 0.80118674 1.4188336e-38
0.14410473 -0.026301889 0.80118674 1.492551e-38
0.14484562 -0.026301889 0.80118674 1.5109163e-38
0.14558652 -0.026301889 0.80118674 1.5569403e-38
0.14516182 -0.026092375 0.79480469 1.5937459e-38
0.14589681 -0.026092375 0.79480469 1.6121125e-38
0.14663181 -0.026092375 0.79480469 1.5753774e-38
0.14712334 -0.026049266 0.79349154 1.5384989e-38
0.14785711 -0.026049266 0.79349154 1.5570456e-38
0.14859089 -0.026049266 0.79349154 1.5755567e-38
0.14897731 -0.02598867 0.79164571 1.5848838e-38
0.14970937 -0.02598867 0.79164571 1.5848836e-38
0.15044145 -0.02598867 0.79164571 1.5757719e-38
0.15043384 -0.025861507 0.78777218 1.6034304e-38
0.15116233 -0.025861507 0.78777218 1.603503e-38
0.15189083 -0.025861507 0.78777218 1.6311264e-38
0.15169731 -0.025705272 0.78301311 1.6311968e-38
0.1524214 -0.025705272 0.78301311 1.6404511e-38
0.15314551 -0.025705272 0.78301311 1.6497781e-38
0.1538696 -0.025705272 0.78301311 1.6497781e-38
0.15411715 -0.025626037 0.78059947 1.6774723e-38
0.15483901 -0.025626037 0.78059947 1.7236052e-38
0.15556087 -0.025626037 0.78059947 1.7328967e-38
0.15617059 -0.025607649 0.78003937 1.7974336e-38
0.15689194 -0.025607649 0.78003937 1.806761e-38
0.15761328 -0.025607649 0.78003937 1.8528588e-38
0.15816863 -0.025580803 0.77922159 1.8805893e-38
0.15888922 -0.025580803 0.77922159 1.9174676e-38
0.15960979 -0.025580803 0.77922159 1.9174676e-38
0.15995897 -0.025521543 0.77741647 1.9174676e-38
0.16067788 -0.025521543 0.77741647 1.9359067e-38
0.1613968 -0.025521543 0.77741647 2.0004437e-38
0.16138662 -0.025406765 0.77392018 2.0096632e-38
0.16210231 -0.025406765 0.77392018 2.0096635e-38
0.162818 -0.025406765 0.77392018 2.0097707e-38
0.16343881 -0.025392024 0.77347118 2.0189901e-38
0.16415407 -0.025392024 0.77347118 2.0374648e-38
0.16486934 -0.025392024 0.77347118 2.0650875e-38
0.16532294 -0.025351899 0.77224892 2.0835625e-38
0.16603708 -0.025351899 0.77224892 2.1388799e-38
0.16675122 -0.025351899 0.77224892 2.1665034e-38
0.16746536 -0.025351899 0.77224892 2.166504e-38
0.1681795 -0.025351899 0.77224892 2.1572485e-38
0.16936509 -0.025422666 0.77440459 2.1757235e-38
0.1697998 -0.025380602 0.77312326 2.2126015e-38
0.17051476 -0.025380602 0.77312326 2.2218211e-38
0.17122971 -0.025380602 0.77312326 2.2033459e-38
0.17194465 -0.025380602 0.77312326 2.231005e-38
0.17265959 -0.025380602 0.77312326 2.2402599e-38
0.17362827 -0.025417747 0.77425474 2.2586265e-38
0.17434427 -0.025417747 0.77425474 2.2401871e-38
0.17519967 -0.025437988 0.77487129 2.2586621e-38
0.17591622 -0.025437988 0.77487129 2.3139441e-38
0.17663279 -0.025437988 0.77487129 2.3416034e-38
0.17799583 -0.025530715 0.77769583 2.3415678e-38
0.17871501 -0.025530715 0.77769583 2.350716e-38
0.17943418 -0.025530715 0.77769583 2.3507154e-38
0.18038279 -0.025563229 0.77868629 2.3506431e-38
0.18110289 -0.025563229 0.77868629 2.3414233e-38
0.18182297 -0.025563229 0.77868629 2.350571e-38
0.18263653 -0.025576318 0.77908498 2.350607e-38
0.18335699 -0.025576318 0.77908498 2.3506433e-38
0.18407744 -0.025576318 0.77908498 2.3506073e-38
0.18552291 -0.02567666 0.78214151 2.3505714e-38
0.1862462 -0.02567666 0.78214151 2.3228397e-38
0.18981884 -0.026067965 0.79406112 2.2583737e-38
0.19055316 -0.026067965 0.79406112 2.2214591e-38
0.14393163 -0.027722977 0.82133847 9.8559277e-39
0.14469117 -0.027722977 0.82133847 1.0500929e-38
0.1454507 -0.027722977 0.82133847 1.1975313e-38
0.14621024 -0.027722977 0.82133847 1.3542618e-38
0.14336383 -0.027042788 0.80118674 1.4096125e-38
0.14410473 -0.027042788 0.80118674 1.4373045e-38
0.14484562 -0.027042788 0.80118674 1.4740736e-38
