# .PCD v0.7 - Point Cloud Data file format
VERSION 0.7
FIELDS x y z rgb
SIZE 4 4 4 4
TYPE F F F F
COUNT 1 1 1 1
WIDTH 973
HEIGHT 1
VIEWPOINT 0 0 0 1 0 0 0
POINTS 973
DATA ascii
0.065489836 0.078923643 0.72634745 1.6746185e-38
0.066057317 0.078799337 0.72520339 1.5916422e-38
0.066727944 0.078799337 0.72520339 1.3610089e-38
0.067398578 0.078799337 0.72520339 1.1763658e-38
0.068069212 0.078799337 0.72520339 1.0839184e-38
0.068739846 0.078799337 0.72520339 1.1297285e-38
0.069530793 0.078935929 0.72646046 1.1387673e-38
0.070036456 0.07874912 0.72474128 1.2397862e-38
0.070706658 0.07874912 0.72474128 1.2857035e-38
0.07137686 0.07874912 0.72474128 1.3499875e-38
0.07204707 0.07874912 0.72474128 1.4234558e-38
0.072717272 0.07874912 0.72474128 1.5428422e-38
0.073518127 0.07888931 0.72603148 1.4969235e-38
0.0738758 0.078555711 0.72296131 1.4510052e-38
0.074544355 0.078555711 0.72296131 1.3591686e-38
0.075212918 0.078555711 0.72296131 1.3959395e-38
0.075428173 0.078086436 0.71864247 1.5994889e-38
0.076092742 0.078086436 0.71864247 1.8398446e-38
0.076757304 0.078086436 0.71864247 1.9415472e-38
0.077421874 0.078086436 0.71864247 1.877262e-38
0.078086436 0.078086436 0.71864247 1.8496027e-38
-0.023233443 0.076244965 0.70771825 1.3892729e-38
-0.022578981 0.076244965 0.70771825 1.4533783e-38
-0.021924518 0.076244965 0.70771825 1.4160684e-38
-0.021270055 0.076244965 0.70771825 1.4434033e-38
-0.020615593 0.076244965 0.70771825 1.5444592e-38
-0.019962637 0.076250724 0.70777172 1.6002079e-38
-0.019308124 0.076250724 0.70777172 1.9417633e-38
-0.018653611 0.076250724 0.70777172 1.9885448e-38
-0.018018985 0.076334976 0.70855373 1.9799013e-38
-0.017363749 0.076334976 0.70855373 2.2473775e-38
-0.016734023 0.076451518 0.7096355 2.3489016e-38
-0.01606595 0.076395229 0.709113 1.9616089e-38
-0.015410196 0.076395229 0.709113 1.7310849e-38
-0.014754442 0.076395229 0.709113 1.9804813e-38
-0.014095462 0.076377735 0.70895064 2.3501994e-38
-0.013439858 0.076377735 0.70895064 2.3509886e-38
-0.012784256 0.076377735 0.70895064 2.3509886e-38
-0.012128653 0.076377735 0.70895064 2.3509886e-38
-0.01147305 0.076377735 0.70895064 2.3509886e-38
-0.010821754 0.07640814 0.70923287 2.3509886e-38
-0.01016589 0.07640814 0.70923287 2.3509886e-38
-0.0095100263 0.07640814 0.70923287 2.3509886e-38
-0.0088808788 0.076638699 0.71137291 2.3509886e-38
-0.0082230363 0.076638699 0.71137291 2.3509886e-38
-0.0075651929 0.076638699 0.71137291 2.3507016e-38
-0.0069030868 0.076591395 0.71093386 2.3505222e-38
-0.0062456499 0.076591395 0.71093386 2.35002e-38
-0.005588213 0.076591395 0.71093386 2.3495888e-38
-0.0049307765 0.076591395 0.71093386 2.3493734e-38
-0.0042733396 0.076591395 0.71093386 2.2847645e-38
-0.0036177579 0.076630697 0.71129864 2.2754729e-38
-0.0029599839 0.076630697 0.71129864 2.2845845e-38
-0.0023022096 0.076630697 0.71129864 2.2752931e-38
-0.0016467643 0.076739222 0.71230602 2.2936243e-38
-0.00098667759 0.076631963 0.71131039 2.3026641e-38
-0.00032889252 0.076631963 0.71131039 2.3118115e-38
0.00032889252 0.076631963 0.71131039 2.3488698e-38
0.00098540285 0.076532952 0.7103914 2.3492297e-38
0.001642338 0.076532952 0.7103914 2.3494456e-38
0.0022992734 0.076532952 0.7103914 2.3490132e-38
0.0029562083 0.076532952 0.7103914 2.2841524e-38
0.0036131437 0.076532952 0.7103914 2.2473101e-38
0.004273002 0.076585345 0.71087772 2.2840805e-38
0.0049303873 0.076585345 0.71087772 2.2472021e-38
0.005587772 0.076585345 0.71087772 2.2933359e-38
0.0062557235 0.076714933 0.71208054 2.3024476e-38
0.0069142212 0.076714933 0.71208054 2.3023757e-38
0.0075727184 0.076714933 0.71208054 2.2748609e-38
0.0082419664 0.076815121 0.71301055 2.2841524e-38
0.0089013232 0.076815121 0.71301055 2.2840805e-38
0.0095709013 0.076897241 0.71377277 2.302412e-38
0.010230963 0.076897241 0.71377277 2.302412e-38
0.010891026 0.076897241 0.71377277 2.3023401e-38
0.011558888 0.076949179 0.71425486 2.2840808e-38
0.012210373 0.076892346 0.71372736 2.25653e-38
0.012870393 0.076892346 0.71372736 2.2195438e-38
0.013530413 0.076892346 0.71372736 2.2286555e-38
0.01416521 0.076755673 0.71245873 2.3115597e-38
0.014824057 0.076755673 0.71245873 2.3483659e-38
0.015482904 0.076755673 0.71245873 2.3483659e-38
0.016141752 0.076755673 0.71245873 2.348366e-38
0.016800597 0.076755673 0.71245873 2.3114518e-38
0.017480465 0.076848082 0.71331644 2.3023401e-38
0.018140104 0.076848082 0.71331644 2.2746813e-38
0.018799745 0.076848082 0.71331644 2.283829e-38
0.019502496 0.077018335 0.7148968 2.3115597e-38
0.020163599 0.077018335 0.7148968 2.3484378e-38
0.020824701 0.077018335 0.7148968 2.3393981e-38
0.021555142 0.077266894 0.71720397 2.3487975e-38
0.022218378 0.077266894 0.71720397 2.3489414e-38
0.022904752 0.077345036 0.71792924 2.3398297e-38
0.023568656 0.077345036 0.71792924 2.3398297e-38
0.024232563 0.077345036 0.71792924 2.33983e-38
0.024908016 0.077380903 0.7182622 2.3490853e-38
0.025547192 0.077305146 0.71755898 2.3492294e-38
0.026210755 0.077305146 0.71755898 2.3494449e-38
0.026874319 0.077305146 0.71755898 2.3497329e-38
0.027439147 0.077027969 0.71498621 2.3499841e-38
0.02810033 0.077027969 0.71498621 2.350594e-38
0.028761515 0.077027969 0.71498621 2.3508092e-38
0.0294227 0.077027969 0.71498621 2.3509886e-38
0.030083884 0.077027969 0.71498621 2.3509886e-38
0.030750783 0.077042289 0.71511912 2.3509886e-38
0.031412091 0.077042289 0.71511912 2.3509168e-38
0.032073397 0.077042289 0.71511912 2.3509886e-38
0.032818168 0.077238716 0.71694243 2.3509886e-38
0.033481162 0.077238716 0.71694243 2.3509886e-38
0.034144156 0.077238716 0.71694243 2.3509886e-38
0.034912355 0.07747218 0.71910948 2.3509886e-38
0.035577353 0.07747218 0.71910948 2.3509886e-38
0.036317315 0.07763242 0.72059685 2.3509886e-38
0.036977191 0.077618793 0.72047031 2.3509886e-38
0.037643448 0.077618793 0.72047031 2.3507016e-38
0.038309705 0.077618793 0.72047031 2.3311124e-38
0.038960706 0.077588417 0.72018838 2.3307171e-38
0.039626703 0.077588417 0.72018838 2.3398651e-38
0.040292699 0.077588417 0.72018838 2.3489411e-38
0.040937666 0.077548586 0.71981865 2.349085e-38
0.041603319 0.077548586 0.71981865 2.3492655e-38
0.042268973 0.077548586 0.71981865 2.3493018e-38
0.042934626 0.077548586 0.71981865 2.3493384e-38
0.043600276 0.077548586 0.71981865 2.3492665e-38
0.044270057 0.077555813 0.71988577 2.3492665e-38
0.044935774 0.077555813 0.71988577 2.349374e-38
0.045601487 0.077555813 0.71988577 2.349446e-38
0.046335254 0.077669889 0.72094464 2.3495178e-38
0.046960082 0.07760071 0.72030246 2.3494819e-38
0.047626182 0.07760071 0.72030246 2.3495178e-38
0.048292283 0.07760071 0.72030246 2.3495895e-38
0.048934795 0.077563316 0.71995538 2.3498765e-38
0.049600575 0.077563316 0.71995538 2.3499124e-38
0.050266352 0.077563316 0.71995538 2.3498406e-38
0.05086812 0.077465832 0.71905053 2.3497689e-38
0.051533062 0.077465832 0.71905053 2.3499124e-38
0.052198004 0.077465832 0.71905053 2.3497689e-38
0.05286295 0.077465832 0.71905053 2.3497689e-38
0.053527892 0.077465832 0.71905053 2.3498047e-38
0.054223862 0.077510186 0.71946222 2.3499124e-38
0.054889183 0.077510186 0.71946222 2.35002e-38
0.055780642 0.077825688 0.72239077 2.3501635e-38
0.056448672 0.077825688 0.72239077 2.3502352e-38
0.057116706 0.077825688 0.72239077 2.3504146e-38
0.057931963 0.078023978 0.7242313 2.3505222e-38
0.058588654 0.07800661 0.72407013 2.3503787e-38
0.059258241 0.07800661 0.72407013 2.3503787e-38
0.059927825 0.07800661 0.72407013 2.3503428e-38
0.060537584 0.077929601 0.72335529 2.350307e-38
0.061206508 0.077929601 0.72335529 2.3501635e-38
0.061875433 0.077929601 0.72335529 2.3500917e-38
0.062544353 0.077929601 0.72335529 2.3499482e-38
0.063213281 0.077929601 0.72335529 2.3499841e-38
0.063886233 0.077934518 0.72340095 2.35002e-38
0.064555198 0.077934518 0.72340095 2.3499841e-38
0.065489836 0.078251958 0.72634745 2.3500917e-38
0.066057317 0.078128703 0.72520339 2.3497689e-38
0.066727944 0.078128703 0.72520339 2.3493011e-38
0.067398578 0.078128703 0.72520339 2.3394697e-38
0.068069212 0.078128703 0.72520339 2.1733737e-38
0.068739846 0.078128703 0.72520339 1.9610361e-38
0.069530793 0.078264132 0.72646046 1.8959592e-38
0.070036456 0.078078918 0.72474128 1.8675809e-38
0.070706658 0.078078918 0.72474128 1.6641022e-38
0.07137686 0.078078918 0.72474128 1.5803703e-38
0.07204707 0.078078918 0.72474128 1.6538737e-38
0.072717272 0.078078918 0.72474128 1.7456367e-38
0.073518127 0.078217916 0.72603148 1.7180141e-38
0.0738758 0.077887155 0.72296131 1.524475e-38
0.074544355 0.077887155 0.72296131 1.4602253e-38
0.075212918 0.077887155 0.72296131 1.5895506e-38
0.075428173 0.077421874 0.71864247 1.7931e-38
0.076092742 0.077421874 0.71864247 1.941332e-38
0.076757304 0.077421874 0.71864247 2.0061205e-38
0.077421874 0.077421874 0.71864247 1.9603103e-38
0.078086436 0.077421874 0.71864247 1.9418706e-38
-0.023233443 0.075590506 0.70771825 1.4262591e-38
-0.022578981 0.075590506 0.70771825 1.4902924e-38
-0.021924518 0.075590506 0.70771825 1.4620942e-38
-0.021270055 0.075590506 0.70771825 1.4341478e-38
-0.020615593 0.075590506 0.70771825 1.4246767e-38
-0.019962637 0.075596213 0.70777172 1.4713858e-38
-0.019308124 0.075596213 0.70777172 1.8685104e-38
-0.018653611 0.075596213 0.70777172 2.2471245e-38
-0.018018985 0.075679742 0.70855373 2.3495482e-38
-0.017363749 0.075679742 0.70855373 2.3504852e-38
-0.016734023 0.075795278 0.7096355 2.350594e-38
-0.01606595 0.075739473 0.709113 2.3494785e-38
-0.015410196 0.075739473 0.709113 2.1368176e-38
-0.014754442 0.075739473 0.709113 2.0266868e-38
-0.014095462 0.075722136 0.70895064 2.3499117e-38
-0.013439858 0.075722136 0.70895064 2.3509886e-38
-0.012784256 0.075722136 0.70895064 2.3509886e-38
-0.012128653 0.075722136 0.70895064 2.3509886e-38
-0.01147305 0.075722136 0.70895064 2.3509886e-38
-0.010821754 0.075752281 0.70923287 2.3509886e-38
-0.01016589 0.075752281 0.70923287 2.3509886e-38
-0.0095100263 0.075752281 0.70923287 2.3509886e-38
-0.0088808788 0.07598085 0.71137291 2.3509886e-38
-0.0082230363 0.07598085 0.71137291 2.3509886e-38
-0.0075651929 0.07598085 0.71137291 2.3508809e-38
-0.0069030868 0.075933956 0.71093386 2.3508092e-38
-0.0062456499 0.075933956 0.71093386 2.3504863e-38
-0.005588213 0.075933956 0.71093386 2.3499124e-38
-0.0049307765 0.075933956 0.71093386 2.3494809e-38
-0.0042733396 0.075933956 0.71093386 2.33079e-38
-0.0036177579 0.075972922 0.71129864 2.321355e-38
-0.0029599839 0.075972922 0.71129864 2.3028439e-38
-0.0023022096 0.075972922 0.71129864 2.2935524e-38
-0.0016467643 0.076080516 0.71230602 2.3027717e-38
-0.00098667759 0.075974174 0.71131039 2.2935521e-38
-0.00032889252 0.075974174 0.71131039 2.2935521e-38
0.00032889252 0.075974174 0.71131039 2.3488697e-38
0.00098540285 0.07587602 0.7103914 2.3493376e-38
0.001642338 0.07587602 0.7103914 2.3495895e-38
0.0022992734 0.07587602 0.7103914 2.3492294e-38
0.0029475782 0.075654507 0.70831752 2.3394697e-38
0.0036025955 0.075654507 0.70831752 2.2840805e-38
0.0042576129 0.075654507 0.70831752 2.2655693e-38
0.0049126307 0.075654507 0.70831752 2.274789e-38
0.0055676475 0.075654507 0.70831752 2.274789e-38
0.0062361951 0.075819008 0.70985764 2.2655693e-38
0.0068831397 0.075714536 0.70887953 2.2931921e-38
0.0075386767 0.075714536 0.70887953 2.2840805e-38
0.0081942137 0.075714536 0.70887953 2.2841524e-38
0.0088497512 0.075714536 0.70887953 2.2841524e-38
0.0095052887 0.075714536 0.70887953 2.2840808e-38
0.010188055 0.075917445 0.71077925 2.2564219e-38
0.010845349 0.075917445 0.71077925 2.2655696e-38
0.011502642 0.075917445 0.71077925 2.2749331e-38
0.012160342 0.075919978 0.71080297 2.210504e-38
0.012817658 0.075919978 0.71080297 2.108981e-38
0.013474974 0.075919978 0.71080297 2.0629192e-38
0.01413229 0.075919978 0.71080297 2.2103243e-38
0.014789606 0.075919978 0.71080297 2.3393263e-38
0.015460368 0.075986065 0.71142173 2.3485458e-38
0.016118256 0.075986065 0.71142173 2.320887e-38
0.016776145 0.075986065 0.71142173 2.3209589e-38
0.01745696 0.076085992 0.71235728 2.2748612e-38
0.018115712 0.076085992 0.71235728 2.2471665e-38
0.018774465 0.076085992 0.71235728 2.2470946e-38
0.019449372 0.076149233 0.7129494 2.2656416e-38
0.020108672 0.076149233 0.7129494 2.2840808e-38
0.020767974 0.076149233 0.7129494 2.3486896e-38
0.021451714 0.076236092 0.71376258 2.3487975e-38
0.022111766 0.076236092 0.71376258 2.3305382e-38
0.022771819 0.076236092 0.71376258 2.3213905e-38
0.02345301 0.076304868 0.71440649 2.3306102e-38
0.024113657 0.076304868 0.71440649 2.3398297e-38
0.024774306 0.076304868 0.71440649 2.3398297e-38
0.025400635 0.076201908 0.71344256 2.3306102e-38
0.026060393 0.076201908 0.71344256 2.3123506e-38
0.026720149 0.076201908 0.71344256 2.340117e-38
0.027355831 0.076134905 0.71281523 2.3495522e-38
0.028015008 0.076134905 0.71281523 2.3498039e-38
0.028674183 0.076134905 0.71281523 2.3502352e-38
0.02933336 0.076134905 0.71281523 2.3505581e-38
0.029992538 0.076134905 0.71281523 2.3509886e-38
0.030668935 0.076177679 0.71321571 2.3509886e-38
0.031328481 0.076177679 0.71321571 2.3509886e-38
0.031988028 0.076177679 0.71321571 2.3509886e-38
0.032702919 0.076306812 0.71442473 2.3509886e-38
0.033363584 0.076306812 0.71442473 2.3509886e-38
0.03402425 0.076306812 0.71442473 2.3509886e-38
0.034760058 0.076472126 0.71597248 2.3509886e-38
0.035422154 0.076472126 0.71597248 2.3509886e-38
0.03608425 0.076472126 0.71597248 2.3509886e-38
0.036789399 0.076561719 0.7168113 2.3509886e-38
0.037452269 0.076561719 0.7168113 2.3500547e-38
0.038115144 0.076561719 0.7168113 2.1837433e-38
0.038779765 0.076565176 0.71684366 2.2111146e-38
0.039370343 0.076424778 0.7155292 2.2940191e-38
0.040032029 0.076424778 0.7155292 2.3399013e-38
0.040693715 0.076424778 0.7155292 2.3399013e-38
0.041355401 0.076424778 0.7155292 2.3492294e-38
0.042017087 0.076424778 0.7155292 2.3493737e-38
0.042724162 0.076506063 0.71629018 2.3493024e-38
0.043386552 0.076506063 0.71629018 2.3493024e-38
0.044088166 0.076574184 0.71692801 2.3493024e-38
0.044751149 0.076574184 0.71692801 2.349374e-38
0.045414124 0.076574184 0.71692801 2.349374e-38
0.046183091 0.076750323 0.71857709 2.3494459e-38
0.046786774 0.076650679 0.71764416 2.3494099e-38
0.047450416 0.076650679 0.71764416 2.3493738e-38
0.048114058 0.076650679 0.71764416 2.3494097e-38
0.048732001 0.076578863 0.71697181 2.3495536e-38
0.049395025 0.076578863 0.71697181 2.3495178e-38
0.050058044 0.076578863 0.71697181 2.3494817e-38
0.050593089 0.076385647 0.71516281 2.3494817e-38
0.051254436 0.076385647 0.71516281 2.3494099e-38
0.051915783 0.076385647 0.71516281 2.349302e-38
0.052534346 0.076323487 0.71458083 2.349158e-38
0.053195156 0.076323487 0.71458083 2.3491942e-38
0.053855967 0.076323487 0.71458083 2.349374e-38
0.054516774 0.076323487 0.71458083 2.349374e-38
0.055177584 0.076323487 0.71458083 2.3494459e-38
0.056059722 0.07662601 0.71741325 2.3495536e-38
0.056723151 0.07662601 0.71741325 2.349733e-38
0.057386581 0.07662601 0.71741325 2.3498406e-38
0.058223616 0.076855175 0.71955878 2.3498765e-38
0.058889028 0.076855175 0.71955878 2.3499841e-38
0.059687071 0.07702633 0.72116125 2.3499482e-38
0.060337592 0.077005439 0.72096562 2.3498765e-38
0.061004307 0.077005439 0.72096562 2.3502352e-38
0.061671022 0.077005439 0.72096562 2.3496971e-38
0.062337734 0.077005439 0.72096562 2.3495895e-38
0.063004449 0.077005439 0.72096562 2.3496254e-38
0.063681222 0.077017605 0.72107953 2.3502352e-38
0.064348042 0.077017605 0.72107953 2.3501635e-38
0.065014862 0.077017605 0.72107953 2.3502352e-38
0.065749489 0.07709711 0.72182393 2.3501276e-38
0.066416994 0.07709711 0.72182393 2.3500917e-38
0.067084499 0.07709711 0.72182393 2.3500559e-38
0.067752011 0.07709711 0.72182393 2.3499841e-38
0.068419516 0.07709711 0.72182393 2.349733e-38
0.069267802 0.077298857 0.72371274 2.3494094e-38
0.069937058 0.077298857 0.72371274 2.3481134e-38
0.070606314 0.077298857 0.72371274 2.0615865e-38
0.071282998 0.077306911 0.7237882 1.9596674e-38
0.071952321 0.077306911 0.7237882 1.9589472e-38
0.072621644 0.077306911 0.7237882 1.8659954e-38
0.073441267 0.077465445 0.72527248 1.7551081e-38
0.073836006 0.077177003 0.72257191 1.6627683e-38
0.074504204 0.077177003 0.72257191 1.6262851e-38
0.075172409 0.077177003 0.72257191 1.6727419e-38
0.075840607 0.077177003 0.72257191 1.820866e-38
0.076508805 0.077177003 0.72257191 1.9413317e-38
0.078926519 0.078926519 0.7389518 1.9969365e-38
-0.021177212 0.074608944 0.70462906 1.3696109e-38
-0.020525604 0.074608944 0.70462906 1.3693595e-38
-0.019885456 0.074651957 0.70503527 1.3794423e-38
-0.019233473 0.074651957 0.70503527 1.9519543e-38
-0.018581491 0.074651957 0.70503527 2.3498001e-38
-0.017952774 0.074748822 0.70595014 2.3509886e-38
-0.017299946 0.074748822 0.70595014 2.3509886e-38
-0.016647117 0.074748822 0.70595014 2.3509886e-38
-0.016001234 0.074781276 0.70625663 2.3504863e-38
-0.015348122 0.074781276 0.70625663 2.1738038e-38
-0.01469501 0.074781276 0.70625663 1.9068683e-38
-0.014061103 0.07488355 0.70722252 2.3501275e-38
-0.013407098 0.07488355 0.70722252 2.3509886e-38
-0.012766121 0.074960046 0.70794499 2.3509886e-38
-0.012111449 0.074960046 0.70794499 2.3509886e-38
-0.011456775 0.074960046 0.70794499 2.3509886e-38
-0.010831133 0.075161494 0.70984751 2.3509886e-38
-0.0101747 0.075161494 0.70984751 2.3509886e-38
-0.0095182676 0.075161494 0.70984751 2.3509886e-38
-0.0088624414 0.075166635 0.70989603 2.3509886e-38
-0.0081882095 0.075003996 0.70836008 2.3509886e-38
-0.0075331526 0.075003996 0.70836008 2.3509886e-38
-0.0068780957 0.075003996 0.70836008 2.3509886e-38
-0.0062096468 0.074842587 0.70683569 2.3508809e-38
-0.0055559999 0.074842587 0.70683569 2.3501994e-38
-0.004902353 0.074842587 0.70683569 2.3495891e-38
-0.0042487062 0.074842587 0.70683569 2.3492291e-38
-0.0035950588 0.074842587 0.70683569 2.3489058e-38
-0.0029423318 0.074866004 0.70705682 2.3303228e-38
-0.0022884805 0.074866004 0.70705682 2.3210313e-38
-0.0016346289 0.074866004 0.70705682 2.3211388e-38
-0.00098242017 0.074991405 0.70824116 2.2935521e-38
-0.00032747339 0.074991405 0.70824116 2.293624e-38
0.00032747339 0.074991405 0.70824116 2.3213186e-38
0.00098242017 0.074991405 0.70824116 2.3494097e-38
0.0016373669 0.074991405 0.70824116 2.3498406e-38
0.002297271 0.075153582 0.70977277 2.3493733e-38
0.0029475782 0.074999489 0.70831752 2.3486893e-38
0.0036025955 0.074999489 0.70831752 2.3209586e-38
0.0042576129 0.074999489 0.70831752 2.3115953e-38
0.0049126307 0.074999489 0.70831752 2.2839006e-38
0.0055676475 0.074999489 0.70831752 2.2930482e-38
0.0062361951 0.075162567 0.70985764 2.2839006e-38
0.0068831397 0.075059004 0.70887953 2.3301063e-38
0.0075386767 0.075059004 0.70887953 2.3486174e-38
0.0081942137 0.075059004 0.70887953 2.3118115e-38
0.0088497512 0.075059004 0.70887953 2.2841527e-38
0.0095052887 0.075059004 0.70887953 2.2933003e-38
0.010188055 0.075260147 0.71077925 2.2748612e-38
0.010845349 0.075260147 0.71077925 2.2840808e-38
0.011502642 0.075260147 0.71077925 2.2933722e-38
0.012160342 0.075262666 0.71080297 2.2566019e-38
0.012817658 0.075262666 0.71080297 2.109053e-38
0.013474974 0.075262666 0.71080297 1.8140628e-38
0.01413229 0.075262666 0.71080297 1.9984541e-38
0.014789606 0.075262666 0.71080297 2.3210669e-38
0.015460368 0.075328179 0.71142173 2.3395779e-38
0.016118256 0.075328179 0.71142173 2.3211388e-38
0.016776145 0.075328179 0.71142173 2.3026638e-38
0.01745696 0.075427242 0.71235728 2.25653e-38
0.018115712 0.075427242 0.71235728 2.191993e-38
0.018774465 0.075427242 0.71235728 2.2288353e-38
0.019449372 0.075489931 0.7129494 2.25653e-38
0.020108672 0.075489931 0.7129494 2.2841529e-38
0.020767974 0.075489931 0.7129494 2.3026638e-38
0.021451714 0.075576037 0.71376258 2.3395779e-38
0.022111766 0.075576037 0.71376258 2.3213186e-38
0.022771819 0.075576037 0.71376258 2.3213905e-38
0.02345301 0.075644217 0.71440649 2.3398297e-38
0.024113657 0.075644217 0.71440649 2.3398297e-38
0.024774306 0.075644217 0.71440649 2.3306102e-38
0.025400635 0.075542152 0.71344256 2.3306102e-38
0.026060393 0.075542152 0.71344256 2.3123506e-38
0.026720149 0.075542152 0.71344256 2.2940193e-38
0.027355831 0.07547573 0.71281523 2.3033105e-38
0.028015008 0.07547573 0.71281523 2.303418e-38
0.028674183 0.07547573 0.71281523 2.3404039e-38
0.02933336 0.07547573 0.71281523 2.3500196e-38
0.029992538 0.07547573 0.71281523 2.3503787e-38
0.030668935 0.075518131 0.71321571 2.3509168e-38
0.031328481 0.075518131 0.71321571 2.3509886e-38
0.031988028 0.075518131 0.71321571 2.3509886e-38
0.032702919 0.075646147 0.71442473 2.3509886e-38
0.033363584 0.075646147 0.71442473 2.3509886e-38
0.03402425 0.075646147 0.71442473 2.3509886e-38
0.034760058 0.07581003 0.71597248 2.3509886e-38
0.035422154 0.07581003 0.71597248 2.3509886e-38
0.03608425 0.07581003 0.71597248 2.3509886e-38
0.036789399 0.075898848 0.7168113 2.3509886e-38
0.037452269 0.075898848 0.7168113 2.3505222e-38
0.038115144 0.075898848 0.7168113 2.3406559e-38
0.038779765 0.075902276 0.71684366 2.2942707e-38
0.039370343 0.075763091 0.7155292 2.3033824e-38
0.040032029 0.075763091 0.7155292 2.2940912e-38
0.040693715 0.075763091 0.7155292 2.3308619e-38
0.041355401 0.075763091 0.7155292 2.3492297e-38
0.042017087 0.075763091 0.7155292 2.3492299e-38
0.042724162 0.075843669 0.71629018 2.3492304e-38
0.043386552 0.075843669 0.71629018 2.3492664e-38
0.044088166 0.075911209 0.71692801 2.3493024e-38
0.044751149 0.075911209 0.71692801 2.3493024e-38
0.045414124 0.075911209 0.71692801 2.3493024e-38
0.046183091 0.076085813 0.71857709 2.3493383e-38
0.046786774 0.075987034 0.71764416 2.3493383e-38
0.047450416 0.075987034 0.71764416 2.3493378e-38
0.048114058 0.075987034 0.71764416 2.3493737e-38
0.048732001 0.075915843 0.71697181 2.3494457e-38
0.049395025 0.075915843 0.71697181 2.3495536e-38
0.050058044 0.075915843 0.71697181 2.3494457e-38
0.050593089 0.075724296 0.71516281 2.3494817e-38
0.051254436 0.075724296 0.71516281 2.3493378e-38
0.051915783 0.075724296 0.71516281 2.3492659e-38
0.052534346 0.07566268 0.71458083 2.3492299e-38
0.053195156 0.07566268 0.71458083 2.3491941e-38
0.053855967 0.07566268 0.71458083 2.349338e-38
0.054516774 0.07566268 0.71458083 2.349338e-38
0.055177584 0.07566268 0.71458083 2.3493378e-38
0.056059722 0.075962588 0.71741325 2.3493378e-38
0.056723151 0.075962588 0.71741325 2.3495173e-38
0.057386581 0.075962588 0.71741325 2.3496613e-38
0.058223616 0.076189764 0.71955878 2.349733e-38
0.058889028 0.076189764 0.71955878 2.3498047e-38
0.059687071 0.076359436 0.72116125 2.3498406e-38
0.060337592 0.076338723 0.72096562 2.349733e-38
0.061004307 0.076338723 0.72096562 2.3495895e-38
0.061671022 0.076338723 0.72096562 2.3495536e-38
0.062337734 0.076338723 0.72096562 2.3496971e-38
0.063004449 0.076338723 0.72096562 2.349733e-38
0.063681222 0.076350786 0.72107953 2.3496971e-38
0.064348042 0.076350786 0.72107953 2.349733e-38
0.065014862 0.076350786 0.72107953 2.3496613e-38
0.065749489 0.076429605 0.72182393 2.3495178e-38
0.066416994 0.076429605 0.72182393 2.3495178e-38
0.067084499 0.076429605 0.72182393 2.3495178e-38
0.067752011 0.076429605 0.72182393 2.3497689e-38
0.068419516 0.076429605 0.72182393 2.3498047e-38
0.069267802 0.076629601 0.72371274 2.349661e-38
0.069937058 0.076629601 0.72371274 2.3489046e-38
0.070606314 0.076629601 0.72371274 2.3485444e-38
0.071282998 0.076637588 0.7237882 2.3484724e-38
0.071952321 0.076637588 0.7237882 2.3008984e-38
0.072621644 0.076637588 0.7237882 1.9309645e-38
0.073441267 0.076794751 0.72527248 1.7277374e-38
0.073836006 0.076508805 0.72257191 1.7457445e-38
0.074504204 0.076508805 0.72257191 1.6540154e-38
0.075172409 0.076508805 0.72257191 1.6728494e-38
0.075840607 0.076508805 0.72257191 1.8025345e-38
0.076508805 0.076508805 0.72257191 1.9413673e-38
0.078926519 0.078243174 0.7389518 1.9693134e-38
-0.021177212 0.073957339 0.70462906 1.3510999e-38
-0.020525604 0.073957339 0.70462906 1.3692875e-38
-0.019885456 0.073999971 0.70503527 1.4530546e-38
-0.019233473 0.073999971 0.70503527 2.1452051e-38
-0.018581491 0.073999971 0.70503527 2.3501244e-38
-0.017952774 0.074095994 0.70595014 2.3509886e-38
-0.017299946 0.074095994 0.70595014 2.3509886e-38
-0.016647117 0.074095994 0.70595014 2.3509886e-38
-0.016001234 0.074128166 0.70625663 2.3508451e-38
-0.015348122 0.074128166 0.70625663 2.1922066e-38
-0.01469501 0.074128166 0.70625663 1.9621854e-38
-0.014061103 0.074229546 0.70722252 2.3501268e-38
-0.013407098 0.074229546 0.70722252 2.3509886e-38
-0.012766121 0.074305378 0.70794499 2.3509886e-38
-0.012111449 0.074305378 0.70794499 2.3509886e-38
-0.011456775 0.074305378 0.70794499 2.3509886e-38
-0.010831133 0.074505061 0.70984751 2.3509886e-38
-0.0101747 0.074505061 0.70984751 2.3509886e-38
-0.0095182676 0.074505061 0.70984751 2.3509886e-38
-0.0088624414 0.074510157 0.70989603 2.3509886e-38
-0.0081882095 0.074348941 0.70836008 2.3509886e-38
-0.0075331526 0.074348941 0.70836008 2.3509886e-38
-0.0068780957 0.074348941 0.70836008 2.3509886e-38
-0.0062096468 0.07418894 0.70683569 2.3509886e-38
-0.0055559999 0.07418894 0.70683569 2.3503428e-38
-0.004902353 0.07418894 0.70683569 2.3498045e-38
-0.0042487062 0.07418894 0.70683569 2.3494806e-38
-0.0035950588 0.07418894 0.70683569 2.3492291e-38
-0.0029423318 0.074212156 0.70705682 2.3213905e-38
-0.0022884805 0.074212156 0.70705682 2.3027717e-38
-0.0016346289 0.074212156 0.70705682 2.284368e-38
-0.00098242017 0.074336462 0.70824116 2.2751126e-38
-0.00032747339 0.074336462 0.70824116 2.2936596e-38
0.00032747339 0.074336462 0.70824116 2.3398295e-38
0.00098242017 0.074336462 0.70824116 2.3496251e-38
0.0016373669 0.074336462 0.70824116 2.3504505e-38
0.002297271 0.074497215 0.70977277 2.3500559e-38
0.0029475782 0.074344479 0.70831752 2.3490129e-38
0.0036025955 0.074344479 0.70831752 2.2934075e-38
0.0042576129 0.074344479 0.70831752 2.2841161e-38
0.0049126307 0.074344479 0.70831752 2.2656049e-38
0.0055676475 0.074344479 0.70831752 2.2748245e-38
0.0062361951 0.074506126 0.70985764 2.3208864e-38
0.0068831397 0.074403465 0.70887953 2.3487615e-38
0.0075386767 0.074403465 0.70887953 2.3489414e-38
0.0081942137 0.074403465 0.70887953 2.3486174e-38
0.0088497512 0.074403465 0.70887953 2.2656414e-38
0.0095052887 0.074403465 0.70887953 2.2564219e-38
0.010188055 0.074602857 0.71077925 2.2565297e-38
0.010845349 0.074602857 0.71077925 2.2841524e-38
0.011502642 0.074602857 0.71077925 2.2750407e-38
0.012160342 0.074605346 0.71080297 2.3026993e-38
0.012817658 0.074605346 0.71080297 2.1367473e-38
0.013474974 0.074605346 0.71080297 1.7310865e-38
0.01413229 0.074605346 0.71080297 1.7218669e-38
0.014789606 0.074605346 0.71080297 2.1643339e-38
0.015460368 0.074670292 0.71142173 2.3490852e-38
0.016118256 0.074670292 0.71142173 2.3491573e-38
0.016776145 0.074670292 0.71142173 2.3211385e-38
0.01745696 0.074768484 0.71235728 2.1458589e-38
0.018115712 0.074768484 0.71235728 2.0905415e-38
0.018774465 0.074768484 0.71235728 2.1826296e-38
0.019449372 0.074830636 0.7129494 2.2749331e-38
0.020108672 0.074830636 0.7129494 2.2566019e-38
0.020767974 0.074830636 0.7129494 2.2842606e-38
0.021451714 0.074915983 0.71376258 2.3211388e-38
0.022111766 0.074915983 0.71376258 2.312099e-38
0.022771819 0.074915983 0.71376258 2.3213905e-38
0.02345301 0.074983567 0.71440649 2.3398297e-38
0.024113657 0.074983567 0.71440649 2.3398297e-38
0.024774306 0.074983567 0.71440649 2.3306102e-38
0.025400635 0.074882396 0.71344256 2.3398297e-38
0.026060393 0.074882396 0.71344256 2.3400451e-38
0.026720149 0.074882396 0.71344256 2.340117e-38
0.027355831 0.074816547 0.71281523 2.3495522e-38
0.028015008 0.074816547 0.71281523 2.349732e-38
0.028674183 0.074816547 0.71281523 2.3499477e-38
0.02933336 0.074816547 0.71281523 2.3501635e-38
0.029992538 0.074816547 0.71281523 2.350307e-38
0.030668935 0.074858584 0.71321571 2.3505222e-38
0.031328481 0.074858584 0.71321571 2.3506657e-38
0.031988028 0.074858584 0.71321571 2.3509886e-38
0.032702919 0.074985482 0.71442473 2.3509886e-38
0.033363584 0.074985482 0.71442473 2.3509886e-38
0.03402425 0.074985482 0.71442473 2.3509886e-38
0.034760058 0.075147934 0.71597248 2.3509886e-38
0.035422154 0.075147934 0.71597248 2.3509886e-38
0.03608425 0.075147934 0.71597248 2.3509886e-38
0.036789399 0.075235978 0.7168113 2.3509886e-38
0.037452269 0.075235978 0.7168113 2.3509886e-38
0.038115144 0.075235978 0.7168113 2.3509886e-38
0.038779765 0.075239375 0.71684366 2.3506298e-38
0.039370343 0.075101405 0.7155292 2.3500559e-38
0.040032029 0.075101405 0.7155292 2.3495525e-38
0.040693715 0.075101405 0.7155292 2.349409e-38
0.041355401 0.075101405 0.7155292 2.3493015e-38
0.042017087 0.075101405 0.7155292 2.3492294e-38
0.042724162 0.075181276 0.71629018 2.3492299e-38
0.043386552 0.075181276 0.71629018 2.349302e-38
0.044088166 0.075248227 0.71692801 2.3493383e-38
0.044751149 0.075248227 0.71692801 2.3493741e-38
0.045414124 0.075248227 0.71692801 2.3493381e-38
0.046183091 0.075421311 0.71857709 2.3493381e-38
0.046786774 0.075323395 0.71764416 2.34941e-38
0.047450416 0.075323395 0.71764416 2.3494097e-38
0.048114058 0.075323395 0.71764416 2.3494816e-38
0.048732001 0.075252824 0.71697181 2.3495536e-38
0.049395025 0.075252824 0.71697181 2.3496613e-38
0.050058044 0.075252824 0.71697181 2.3495894e-38
0.050593089 0.075062953 0.71516281 2.3495532e-38
0.051254436 0.075062953 0.71516281 2.3493733e-38
0.051915783 0.075062953 0.71516281 2.3401537e-38
0.052534346 0.075001866 0.71458083 2.3401537e-38
0.053195156 0.075001866 0.71458083 2.3493734e-38
0.053855967 0.075001866 0.71458083 2.3494453e-38
0.054516774 0.075001866 0.71458083 2.3494453e-38
0.055177584 0.075001866 0.71458083 2.3494093e-38
0.056059722 0.075299159 0.71741325 2.3493733e-38
0.056723151 0.075299159 0.71741325 2.3494813e-38
0.057386581 0.075299159 0.71741325 2.3496613e-38
0.058223616 0.075524352 0.71955878 2.3495894e-38
0.058889028 0.075524352 0.71955878 2.3495894e-38
0.059687071 0.075692542 0.72116125 2.3495894e-38
0.060337592 0.075672008 0.72096562 2.3495895e-38
0.061004307 0.075672008 0.72096562 2.3495176e-38
0.061671022 0.075672008 0.72096562 2.3495176e-38
0.062337734 0.075672008 0.72096562 2.3495176e-38
0.063004449 0.075672008 0.72096562 2.3495895e-38
0.063681222 0.075683966 0.72107953 2.3496254e-38
0.064348042 0.075683966 0.72107953 2.3495895e-38
0.065014862 0.075683966 0.72107953 2.3495536e-38
0.065749489 0.075762101 0.72182393 2.3494815e-38
0.066416994 0.075762101 0.72182393 2.3494094e-38
0.067084499 0.075762101 0.72182393 2.3493376e-38
0.067752011 0.075762101 0.72182393 2.3494815e-38
0.068419516 0.075762101 0.72182393 2.3494097e-38
0.069267802 0.075960346 0.72371274 2.3491209e-38
0.069937058 0.075960346 0.72371274 2.3302135e-38
0.070606314 0.075960346 0.72371274 2.3489407e-38
0.071282998 0.075968266 0.7237882 2.3490132e-38
0.071952321 0.075968266 0.7237882 2.3476455e-38
0.072621644 0.075968266 0.7237882 1.9862828e-38
0.073441267 0.076124057 0.72527248 1.6632016e-38
0.073836006 0.075840607 0.72257191 1.6813519e-38
0.074504204 0.075840607 0.72257191 1.6633075e-38
0.075172409 0.075840607 0.72257191 1.6822133e-38
0.075840607 0.075840607 0.72257191 1.8210458e-38
0.076508805 0.075840607 0.72257191 1.9321838e-38
0.078926519 0.077559829 0.7389518 1.9140325e-38
-0.021177212 0.073305734 0.70462906 1.4062734e-38
-0.020525604 0.073305734 0.70462906 1.3967664e-38
-0.019885456 0.073347993 0.70503527 1.5449624e-38
-0.019233473 0.073347993 0.70503527 2.2370409e-38
-0.018581491 0.073347993 0.70503527 2.3494044e-38
-0.017952774 0.073443167 0.70595014 2.3505215e-38
-0.017299946 0.073443167 0.70595014 2.3509886e-38
-0.016647117 0.073443167 0.70595014 2.3509886e-38
-0.016001234 0.073475055 0.70625663 2.3501626e-38
-0.015348122 0.073475055 0.70625663 2.1092665e-38
-0.01469501 0.073475055 0.70625663 1.9345263e-38
-0.014061103 0.073575541 0.70722252 2.3499104e-38
-0.013407098 0.073575541 0.70722252 2.3509886e-38
-0.012766121 0.073650703 0.70794499 2.3509886e-38
-0.012111449 0.073650703 0.70794499 2.3509886e-38
-0.011456775 0.073650703 0.70794499 2.3509886e-38
-0.010831133 0.073848628 0.70984751 2.3509886e-38
-0.0101747 0.073848628 0.70984751 2.3509886e-38
-0.0095182676 0.073848628 0.70984751 2.3509886e-38
-0.0088624414 0.073853679 0.70989603 2.3509886e-38
-0.0081882095 0.073693886 0.70836008 2.3509886e-38
-0.0075331526 0.073693886 0.70836008 2.3509886e-38
-0.0068780957 0.073693886 0.70836008 2.3509886e-38
-0.0062096468 0.073535293 0.70683569 2.3509886e-38
-0.0055559999 0.073535293 0.70683569 2.3505222e-38
-0.004902353 0.073535293 0.70683569 2.3499124e-38
-0.0042487062 0.073535293 0.70683569 2.3497326e-38
-0.0035950588 0.073535293 0.70683569 2.3495527e-38
-0.0029423318 0.073558301 0.70705682 2.3400451e-38
-0.0022884805 0.073558301 0.70705682 2.3121706e-38
-0.0016346289 0.073558301 0.70705682 2.2936596e-38
-0.00098242017 0.073681511 0.70824116 2.2842961e-38
-0.00032747339 0.073681511 0.70824116 2.2660009e-38
0.00032747339 0.073681511 0.70824116 2.2846198e-38
0.00098242017 0.073681511 0.70824116 2.349661e-38
0.0016373669 0.073681511 0.70824116 2.3508092e-38
0.002297271 0.073840857 0.70977277 2.3507374e-38
0.0029536341 0.073840857 0.70977277 2.3493369e-38
0.0036099972 0.073840857 0.70977277 2.2198308e-38
0.0042734966 0.073964365 0.71095997 2.1643336e-38
0.0049309577 0.073964365 0.71095997 2.1827729e-38
0.0055884183 0.073964365 0.71095997 2.3117388e-38
0.006252388 0.074041441 0.71170086 2.3487971e-38
0.0069105346 0.074041441 0.71170086 2.3489776e-38
0.0075686807 0.074041441 0.71170086 2.3487976e-38
0.0082325367 0.074092835 0.71219486 2.3301063e-38
0.0088911401 0.074092835 0.71219486 2.2564217e-38
0.0095497435 0.074092835 0.71219486 2.2471665e-38
0.010240611 0.074327014 0.71444583 2.2749328e-38
0.010901296 0.074327014 0.71444583 2.3118469e-38
0.011588113 0.074495018 0.7160607 2.3211385e-38
0.012249088 0.074487701 0.71599036 2.3395776e-38
0.012911201 0.074487701 0.71599036 2.2658211e-38
0.013573313 0.074487701 0.71599036 1.7955515e-38
0.014235427 0.074487701 0.71599036 1.49127e-38
0.014897539 0.074487701 0.71599036 1.7955515e-38
0.015603588 0.074698031 0.71801209 2.3210666e-38
0.016240859 0.074575372 0.71683311 2.3490493e-38
0.016903751 0.074575372 0.71683311 2.1274558e-38
0.017566644 0.074575372 0.71683311 1.6848808e-38
0.018229535 0.074575372 0.71683311 1.7309066e-38
0.018892428 0.074575372 0.71683311 2.1733381e-38
0.019556973 0.074581683 0.71689373 2.2749331e-38
0.020185603 0.074455097 0.71567696 2.2842606e-38
0.020847427 0.074455097 0.71567696 2.275041e-38
0.021509249 0.074455097 0.71567696 2.3026638e-38
0.022171073 0.074455097 0.71567696 2.2935521e-38
0.022832895 0.074455097 0.71567696 2.312099e-38
0.023510586 0.074505381 0.71616036 2.3305382e-38
0.024172857 0.074505381 0.71616036 2.3489414e-38
0.024849972 0.074549921 0.71658844 2.3213905e-38
0.025501603 0.074517675 0.71627849 2.3490493e-38
0.026163982 0.074517675 0.71627849 2.3493008e-38
0.026826361 0.074517675 0.71627849 2.3496968e-38
0.027482176 0.074499875 0.71610743 2.3499841e-38
0.028144397 0.074499875 0.71610743 2.3502352e-38
0.028806619 0.074499875 0.71610743 2.350307e-38
0.02946884 0.074499875 0.71610743 2.3503787e-38
0.030131061 0.074499875 0.71610743 2.3504146e-38
0.030834798 0.074600317 0.7170729 2.3502711e-38
0.031497911 0.074600317 0.7170729 2.3503787e-38
0.032161027 0.074600317 0.7170729 2.3508809e-38
0.03284042 0.074637324 0.71742857 2.3509886e-38
0.033503864 0.074637324 0.71742857 2.3509886e-38
0.034167308 0.074637324 0.71742857 2.3509886e-38
0.034912951 0.074813463 0.71912169 2.3509886e-38
0.03557796 0.074813463 0.71912169 2.3509886e-38
0.036260277 0.074849196 0.71946514 2.3509886e-38
0.036925603 0.074849196 0.71946514 2.3509886e-38
0.037590928 0.074849196 0.71946514 2.3509886e-38
0.038296327 0.074927598 0.72021878 2.3509886e-38
0.038842063 0.074696273 0.71799523 2.3509886e-38
0.039506029 0.074696273 0.71799523 2.3506298e-38
0.040169995 0.074696273 0.71799523 2.3500917e-38
0.040833961 0.074696273 0.71799523 2.349733e-38
0.041497931 0.074696273 0.71799523 2.3495535e-38
0.042216707 0.074793383 0.71892864 2.3494094e-38
0.042881537 0.074793383 0.71892864 2.3492659e-38
0.043546367 0.074793383 0.71892864 2.3493378e-38
0.044240452 0.07484287 0.71940434 2.3493741e-38
0.044905722 0.07484287 0.71940434 2.3493381e-38
0.045570988 0.07484287 0.71940434 2.3493021e-38
0.04637751 0.075071514 0.72160208 2.349374e-38
0.04702666 0.075042546 0.72132367 2.34941e-38
0.047693703 0.075042546 0.72132367 2.3494816e-38
0.04836075 0.075042546 0.72132367 2.3495895e-38
0.049027793 0.075042546 0.72132367 2.3495895e-38
0.04969484 0.075042546 0.72132367 2.3495895e-38
0.050416913 0.075124539 0.72211182 2.3496971e-38
0.051084686 0.075124539 0.72211182 2.3496252e-38
0.051772732 0.075153969 0.7223947 2.3496608e-38
0.052345701 0.07501772 0.72108507 2.3403332e-38
0.053012524 0.07501772 0.72108507 2.3218941e-38
0.053679347 0.07501772 0.72108507 2.3496608e-38
0.05434617 0.07501772 0.72108507 2.3497329e-38
0.055012997 0.07501772 0.72108507 2.3496247e-38
0.055710077 0.07505849 0.72147691 2.3495528e-38
0.056359991 0.075035498 0.7212559 2.3496613e-38
0.057026975 0.075035498 0.7212559 2.349733e-38
0.057693958 0.075035498 0.7212559 2.3496613e-38
0.058360938 0.075035498 0.7212559 2.3494812e-38
0.059027921 0.075035498 0.7212559 2.3494093e-38
0.059872378 0.075258575 0.72340018 2.3494813e-38
0.060541339 0.075258575 0.72340018 2.3494096e-38
0.061210304 0.075258575 0.72340018 2.3494816e-38
0.061969303 0.075368069 0.72445267 2.3494817e-38
0.062639236 0.075368069 0.72445267 2.3496971e-38
0.063309178 0.075368069 0.72445267 2.3496254e-38
0.063943446 0.075326048 0.72404873 2.3495536e-38
0.064613007 0.075326048 0.72404873 2.3494817e-38
0.065282576 0.075326048 0.72404873 2.3495895e-38
0.065854348 0.075214364 0.72297519 2.3495535e-38
0.066522926 0.075214364 0.72297519 2.3494813e-38
0.067191496 0.075214364 0.72297519 2.3493376e-38
0.067860067 0.075214364 0.72297519 2.3493376e-38
0.068528637 0.075214364 0.72297519 2.3492298e-38
0.06945014 0.07548929 0.72561783 2.3490134e-38
0.070121162 0.07548929 0.72561783 2.3026274e-38
0.070792176 0.07548929 0.72561783 2.3490492e-38
0.071594894 0.075628407 0.72695512 2.3490856e-38
0.072267145 0.075628407 0.72695512 2.34761e-38
0.072939403 0.075628407 0.72695512 1.9032716e-38
0.073673308 0.075691752 0.72756398 1.5710785e-38
0.073927261 0.075265311 0.72346491 1.5984484e-38
0.074596286 0.075265311 0.72346491 1.6357933e-38
0.075265311 0.075265311 0.72346491 1.7375672e-38
0.075934336 0.075265311 0.72346491 1.8487768e-38
0.07660336 0.075265311 0.72346491 1.9045614e-38
-0.024338132 0.072365381 0.70182872 1.0668036e-38
-0.023689115 0.072365381 0.70182872 1.2324681e-38
-0.023040099 0.072365381 0.70182872 1.4626334e-38
-0.022391081 0.072365381 0.70182872 1.563617e-38
-0.021742066 0.072365381 0.70182872 1.5446388e-38
-0.021278707 0.073002331 0.70800614 1.4338241e-38
-0.020623978 0.073002331 0.70800614 1.4888901e-38
-0.019969249 0.073002331 0.70800614 1.7197385e-38
-0.019314518 0.073002331 0.70800614 2.1441974e-38
-0.018659789 0.073002331 0.70800614 2.2001279e-38
-0.01800628 0.073007278 0.70805413 2.3487215e-38
-0.017351506 0.073007278 0.70805413 2.3500903e-38
-0.016696732 0.073007278 0.70805413 2.3498029e-38
-0.016041959 0.073007278 0.70805413 2.3481113e-38
-0.015387185 0.073007278 0.70805413 2.1451018e-38
-0.01474949 0.073091917 0.70887494 2.0260387e-38
-0.014093957 0.073091917 0.70887494 2.3497306e-38
-0.013438424 0.073091917 0.70887494 2.3509886e-38
-0.012809109 0.07324183 0.71032888 2.3509886e-38
-0.012152231 0.07324183 0.71032888 2.3509886e-38
-0.011495355 0.07324183 0.71032888 2.3509886e-38
-0.010856086 0.073360823 0.71148294 2.3509886e-38
-0.010195348 0.073340729 0.71128803 2.3509886e-38
-0.0095375832 0.073340729 0.71128803 2.3509886e-38
-0.008879819 0.073340729 0.71128803 2.3509886e-38
-0.0082165236 0.073291391 0.71080953 2.3509886e-38
-0.0075592017 0.073291391 0.71080953 2.3509886e-38
-0.0069018798 0.073291391 0.71080953 2.3509886e-38
-0.0062445579 0.073291391 0.71080953 2.3509886e-38
-0.005587236 0.073291391 0.71080953 2.3508451e-38
-0.004934595 0.07336098 0.71148443 2.3500917e-38
-0.0042766491 0.07336098 0.71148443 2.3498761e-38
-0.0036218555 0.073424891 0.71210426 2.3496603e-38
-0.0029617909 0.073386602 0.71173292 2.3493724e-38
-0.0023036152 0.073386602 0.71173292 2.3492285e-38
-0.0016454394 0.073386602 0.71173292 2.3491927e-38
-0.00098592427 0.07328704 0.71076733 2.3489408e-38
-0.00032864144 0.07328704 0.71076733 2.2754e-38
0.00032864144 0.07328704 0.71076733 2.1926037e-38
0.00098592427 0.07328704 0.71076733 2.3495162e-38
0.0016432072 0.07328704 0.71076733 2.3509886e-38
0.0023021838 0.073340997 0.71129066 2.3509886e-38
0.0029585743 0.073306903 0.71095997 2.3499841e-38
0.0036160355 0.073306903 0.71095997 2.118775e-38
0.0042734966 0.073306903 0.71095997 2.1185951e-38
0.0049309577 0.073306903 0.71095997 2.2845474e-38
0.0055884183 0.073306903 0.71095997 2.3495166e-38
0.006252388 0.073383294 0.71170086 2.3495531e-38
0.0069105346 0.073383294 0.71170086 2.3491212e-38
0.0075686807 0.073383294 0.71170086 2.330106e-38
0.0082325367 0.073434234 0.71219486 2.2563498e-38
0.0088911401 0.073434234 0.71219486 2.2655693e-38
0.0095497435 0.073434234 0.71219486 2.2748609e-38
0.010240611 0.073666327 0.71444583 2.311739e-38
0.010901296 0.073666327 0.71444583 2.3118469e-38
0.011588113 0.07383284 0.7160607 2.3303937e-38
0.012249088 0.073825583 0.71599036 2.302807e-38
0.012911201 0.073825583 0.71599036 2.2566732e-38
0.013573313 0.073825583 0.71599036 1.9154775e-38
0.014235427 0.073825583 0.71599036 1.4086172e-38
0.014897539 0.073825583 0.71599036 1.3718828e-38
0.015603588 0.074034043 0.71801209 1.81435e-38
0.016240859 0.073912479 0.71683311 2.1277431e-38
0.016903751 0.073912479 0.71683311 1.7773638e-38
0.017566644 0.073912479 0.71683311 1.5653139e-38
0.018229535 0.073912479 0.71683311 1.6941359e-38
0.018892428 0.073912479 0.71683311 2.2379106e-38
0.019556973 0.07391873 0.71689373 2.2840805e-38
0.020185603 0.07379327 0.71567696 2.2565297e-38
0.020847427 0.07379327 0.71567696 2.2658211e-38
0.021509249 0.07379327 0.71567696 2.2842606e-38
0.022171073 0.07379327 0.71567696 2.3027717e-38
0.022832895 0.07379327 0.71567696 2.312099e-38
0.023510586 0.073843114 0.71616036 2.3305382e-38
0.024172857 0.073843114 0.71616036 2.3489414e-38
0.024849972 0.073887251 0.71658844 2.3491213e-38
0.025501603 0.073855296 0.71627849 2.3494815e-38
0.026163982 0.073855296 0.71627849 2.3498406e-38
0.026826361 0.073855296 0.71627849 2.3503787e-38
0.027482176 0.073837653 0.71610743 2.3503787e-38
0.028144397 0.073837653 0.71610743 2.3504505e-38
0.028806619 0.073837653 0.71610743 2.3501276e-38
0.02946884 0.073837653 0.71610743 2.3499838e-38
0.030131061 0.073837653 0.71610743 2.3500556e-38
0.030834798 0.073937207 0.7170729 2.3501632e-38
0.031497911 0.073937207 0.7170729 2.3504505e-38
0.032161027 0.073937207 0.7170729 2.3509886e-38
0.03284042 0.073973879 0.71742857 2.3509886e-38
0.033503864 0.073973879 0.71742857 2.3509886e-38
0.034167308 0.073973879 0.71742857 2.3509886e-38
0.034912951 0.074148454 0.71912169 2.3509886e-38
0.03557796 0.074148454 0.71912169 2.3509886e-38
0.036260277 0.074183866 0.71946514 2.3509886e-38
0.036925603 0.074183866 0.71946514 2.3509886e-38
0.037590928 0.074183866 0.71946514 2.3508092e-38
0.038296327 0.074261576 0.72021878 2.350594e-38
0.038842063 0.074032307 0.71799523 2.3505581e-38
0.039506029 0.074032307 0.71799523 2.3503428e-38
0.040169995 0.074032307 0.71799523 2.3501276e-38
0.040833961 0.074032307 0.71799523 2.3498765e-38
0.041497931 0.074032307 0.71799523 2.349733e-38
0.042216707 0.074128553 0.71892864 2.3494813e-38
0.042881537 0.074128553 0.71892864 2.3493737e-38
0.043546367 0.074128553 0.71892864 2.3493737e-38
0.044240452 0.0741776 0.71940434 2.3494097e-38
0.044905722 0.0741776 0.71940434 2.3493737e-38
0.045570988 0.0741776 0.71940434 2.3493737e-38
0.04637751 0.07440421 0.72160208 2.3494456e-38
0.04702666 0.074375503 0.72132367 2.3494816e-38
0.047693703 0.074375503 0.72132367 2.3495175e-38
0.04836075 0.074375503 0.72132367 2.3495532e-38
0.049027793 0.074375503 0.72132367 2.3496971e-38
0.04969484 0.074375503 0.72132367 2.3496252e-38
0.050416913 0.074456766 0.72211182 2.3497329e-38
0.051084686 0.074456766 0.72211182 2.3497687e-38
0.051772732 0.074485935 0.7223947 2.3499841e-38
0.052345701 0.074350901 0.72108507 2.3499841e-38
0.053012524 0.074350901 0.72108507 2.3499482e-38
0.053679347 0.074350901 0.72108507 2.3501276e-38
0.05434617 0.074350901 0.72108507 2.3502711e-38
0.055012997 0.074350901 0.72108507 2.35002e-38
0.055710077 0.074391305 0.72147691 2.3499482e-38
0.056359991 0.074368514 0.7212559 2.3501276e-38
0.057026975 0.074368514 0.7212559 2.3499841e-38
0.057693958 0.074368514 0.7212559 2.3496608e-38
0.058360938 0.074368514 0.7212559 2.3495528e-38
0.059027921 0.074368514 0.7212559 2.3402613e-38
0.059872378 0.07458961 0.72340018 2.3310421e-38
0.060541339 0.07458961 0.72340018 2.3494093e-38
0.061210304 0.07458961 0.72340018 2.3494813e-38
0.061969303 0.074698135 0.72445267 2.3496254e-38
0.062639236 0.074698135 0.72445267 2.3496971e-38
0.063309178 0.074698135 0.72445267 2.3496613e-38
0.063943446 0.074656479 0.72404873 2.3496254e-38
0.064613007 0.074656479 0.72404873 2.3494817e-38
0.065282576 0.074656479 0.72404873 2.3495178e-38
0.065854348 0.074545793 0.72297519 2.3494459e-38
0.066522926 0.074545793 0.72297519 2.3493736e-38
0.067191496 0.074545793 0.72297519 2.3491938e-38
0.067860067 0.074545793 0.72297519 2.3490856e-38
0.068528637 0.074545793 0.72297519 2.3491213e-38
0.06945014 0.074818268 0.72561783 2.3490492e-38
0.070121162 0.074818268 0.72561783 2.2658567e-38
0.070792176 0.074818268 0.72561783 2.3301779e-38
0.071594894 0.074956156 0.72695512 2.3489774e-38
0.072267145 0.074956156 0.72695512 2.3473942e-38
0.072939403 0.074956156 0.72695512 1.8571023e-38
0.073673308 0.075018935 0.72756398 1.6263239e-38
0.073927261 0.074596286 0.72346491 1.6260345e-38
0.074596286 0.074596286 0.72346491 1.6818185e-38
0.075265311 0.074596286 0.72346491 1.728383e-38
0.075934336 0.074596286 0.72346491 1.8303374e-38
0.07660336 0.074596286 0.72346491 1.8770103e-38
-0.024338132 0.071716368 0.70182872 1.1496718e-38
-0.023689115 0.071716368 0.70182872 1.3245198e-38
-0.023040099 0.071716368 0.70182872 1.4347952e-38
-0.022391081 0.071716368 0.70182872 1.4896451e-38
-0.021742066 0.071716368 0.70182872 1.4983611e-38
-0.021278707 0.072347604 0.70800614 1.488962e-38
-0.020623978 0.072347604 0.70800614 1.6177485e-38
-0.019969249 0.072347604 0.70800614 1.7561491e-38
-0.019314518 0.072347604 0.70800614 1.8944779e-38
-0.018659789 0.072347604 0.70800614 1.7937115e-38
-0.01800628 0.072352506 0.70805413 2.0892786e-38
-0.017351506 0.072352506 0.70805413 2.3483632e-38
-0.016696732 0.072352506 0.70805413 2.3472834e-38
-0.016041959 0.072352506 0.70805413 1.7845666e-38
-0.015387185 0.072352506 0.70805413 1.7198509e-38
-0.01474949 0.072436385 0.70887494 2.0438663e-38
-0.014093957 0.072436385 0.70887494 2.3498029e-38
-0.013438424 0.072436385 0.70887494 2.3509886e-38
-0.012809109 0.072584957 0.71032888 2.3509886e-38
-0.012152231 0.072584957 0.71032888 2.3509886e-38
-0.011495355 0.072584957 0.71032888 2.3509886e-38
-0.010856086 0.072702885 0.71148294 2.3509886e-38
-0.010195348 0.072682962 0.71128803 2.3509886e-38
-0.0095375832 0.072682962 0.71128803 2.3509886e-38
-0.008879819 0.072682962 0.71128803 2.3509886e-38
-0.0082165236 0.072634071 0.71080953 2.3509886e-38
-0.0075592017 0.072634071 0.71080953 2.3509886e-38
-0.0069018798 0.072634071 0.71080953 2.3509886e-38
-0.0062445579 0.072634071 0.71080953 2.3509886e-38
-0.005587236 0.072634071 0.71080953 2.3509886e-38
-0.004934595 0.072703034 0.71148443 2.3503428e-38
-0.0042766491 0.072703034 0.71148443 2.3499838e-38
-0.0036218555 0.072766371 0.71210426 2.3497322e-38
-0.0029617909 0.072728425 0.71173292 2.3494803e-38
-0.0023036152 0.072728425 0.71173292 2.3494805e-38
-0.0016454394 0.072728425 0.71173292 2.3495168e-38
-0.00098592427 0.072629757 0.71076733 2.3494087e-38
-0.00032864144 0.072629757 0.71076733 2.3494082e-38
0.00032864144 0.072629757 0.71076733 2.2480287e-38
0.00098592427 0.072629757 0.71076733 2.3221089e-38
0.0016432072 0.072629757 0.71076733 2.3509886e-38
0.0023021838 0.07268323 0.71129066 2.3509886e-38
0.0029585743 0.072649442 0.71095997 2.3505222e-38
0.0036160355 0.072649442 0.71095997 2.1928553e-38
0.0042734966 0.072649442 0.71095997 2.3033461e-38
0.0049309577 0.072649442 0.71095997 2.350307e-38
0.0055884183 0.072649442 0.71095997 2.350594e-38
