# .PCD v0.7 - Point Cloud Data file format
VERSION 0.7
FIELDS x y z rgb
SIZE 4 4 4 4
TYPE F F F F
COUNT 1 1 1 1
WIDTH 1003
HEIGHT 1
VIEWPOINT 0 0 0 1 0 0 0
POINTS 1003
DATA ascii
0.16410264 0.017310405 1.4975191 2.3509886e-38
0.16548748 0.017310405 1.4975191 2.3509886e-38
0.16687231 0.017310405 1.4975191 2.3509886e-38
0.16825715 0.017310405 1.4975191 2.3509886e-38
0.16979973 0.017326504 1.4989117 2.3509886e-38
0.17118585 0.017326504 1.4989117 2.3509886e-38
0.17257197 0.017326504 1.4989117 2.3509886e-38
0.17407753 0.017338399 1.4999409 2.3509886e-38
0.1754646 0.017338399 1.4999409 2.3509886e-38
0.17685167 0.017338399 1.4999409 2.3509886e-38
0.19334297 0.017201331 1.4880831 2.3509886e-38
0.19471908 0.017201331 1.4880831 2.3509886e-38
0.19609518 0.017201331 1.4880831 2.3509886e-38
0.19747129 0.017201331 1.4880831 2.3509886e-38
0.1988474 0.017201331 1.4880831 2.3509886e-38
0.15272415 0.015894368 1.4945849 2.3049632e-38
0.15396401 0.015879696 1.4932052 2.3326215e-38
0.15534486 0.015879696 1.4932052 2.3509886e-38
0.15672569 0.015879696 1.4932052 2.3509886e-38
0.15797228 0.015866211 1.4919372 2.3509886e-38
0.15935194 0.015866211 1.4919372 2.3509886e-38
0.16073161 0.015866211 1.4919372 2.3509886e-38
0.16211128 0.015866211 1.4919372 2.3509886e-38
0.16349095 0.015866211 1.4919372 2.3509886e-38
0.16490281 0.015869308 1.4922284 2.341805e-38
0.16628276 0.015869308 1.4922284 2.3509886e-38
0.1676627 0.015869308 1.4922284 2.3509886e-38
0.16910781 0.015875427 1.4928038 2.3509886e-38
0.17048828 0.015875427 1.4928038 2.3509886e-38
0.17186876 0.015875427 1.4928038 2.3509886e-38
0.17349784 0.015898209 1.494946 2.3509886e-38
0.1748803 0.015898209 1.494946 2.3509886e-38
0.17626275 0.015898209 1.494946 2.3509886e-38
0.17778656 0.015910858 1.4961355 2.3509886e-38
0.1791701 0.015910858 1.4961355 2.3509886e-38
0.18055366 0.015910858 1.4961355 2.3509886e-38
0.18234068 0.015946142 1.4994533 2.3326215e-38
0.18372729 0.015946142 1.4994533 2.3509886e-38
0.19330743 0.015710497 1.477295 2.3509886e-38
0.19467355 0.015710497 1.477295 2.3509886e-38
0.19603969 0.015710497 1.477295 2.3509886e-38
0.19740582 0.015710497 1.477295 2.3509886e-38
0.19877195 0.015710497 1.477295 2.3509886e-38
0.15272415 0.014512249 1.4945849 2.341805e-38
0.15396401 0.014498852 1.4932052 2.3234379e-38
0.15534486 0.014498852 1.4932052 2.341805e-38
0.15672569 0.014498852 1.4932052 2.3509886e-38
0.15797228 0.01448654 1.4919372 2.3509886e-38
0.15935194 0.01448654 1.4919372 2.3509886e-38
0.16073161 0.01448654 1.4919372 2.3509886e-38
0.16211128 0.01448654 1.4919372 2.3509886e-38
0.16349095 0.01448654 1.4919372 2.3509886e-38
0.16490281 0.014489368 1.4922284 2.3509886e-38
0.16628276 0.014489368 1.4922284 2.3509886e-38
0.1676627 0.014489368 1.4922284 2.3509886e-38
0.16910781 0.014494956 1.4928038 2.3509886e-38
0.17048828 0.014494956 1.4928038 2.3509886e-38
0.17186876 0.014494956 1.4928038 2.3509886e-38
0.17349784 0.014515756 1.494946 2.3326215e-38
0.1748803 0.014515756 1.494946 2.3509886e-38
0.17626275 0.014515756 1.494946 2.3509886e-38
0.17778656 0.014527305 1.4961355 2.3509886e-38
0.1791701 0.014527305 1.4961355 2.3509886e-38
0.18055366 0.014527305 1.4961355 2.3509886e-38
0.18234068 0.014559521 1.4994533 2.3509886e-38
0.18372729 0.014559521 1.4994533 2.3509886e-38
0.19330743 0.014344367 1.477295 2.3509886e-38
0.19467355 0.014344367 1.477295 2.3509886e-38
0.19603969 0.014344367 1.477295 2.3509886e-38
0.19740582 0.014344367 1.477295 2.3509886e-38
0.19877195 0.014344367 1.477295 2.3509886e-38
0.15272415 0.01313013 1.4945849 2.341805e-38
0.15396401 0.013118009 1.4932052 2.341805e-38
0.15534486 0.013118009 1.4932052 2.341805e-38
0.15672569 0.013118009 1.4932052 2.3509886e-38
0.15797228 0.01310687 1.4919372 2.3509886e-38
0.15935194 0.01310687 1.4919372 2.341805e-38
0.16073161 0.01310687 1.4919372 2.3509886e-38
0.16211128 0.01310687 1.4919372 2.3509886e-38
0.16349095 0.01310687 1.4919372 2.3509886e-38
0.16490281 0.013109428 1.4922284 2.3509886e-38
0.16628276 0.013109428 1.4922284 2.3509886e-38
0.1676627 0.013109428 1.4922284 2.3509886e-38
0.16910781 0.013114483 1.4928038 2.3509886e-38
0.17048828 0.013114483 1.4928038 2.3509886e-38
0.17186876 0.013114483 1.4928038 2.3509886e-38
0.17349784 0.013133302 1.494946 2.3326215e-38
0.1748803 0.013133302 1.494946 2.3326215e-38
0.17626275 0.013133302 1.494946 2.3509886e-38
0.17778656 0.013143753 1.4961355 2.3509886e-38
0.1791701 0.013143753 1.4961355 2.3509886e-38
0.18055366 0.013143753 1.4961355 2.3509886e-38
0.18234068 0.0131729 1.4994533 2.3509886e-38
0.18372729 0.0131729 1.4994533 2.3509886e-38
0.19330743 0.012978236 1.477295 2.3509886e-38
0.19467355 0.012978236 1.477295 2.3509886e-38
0.19603969 0.012978236 1.477295 2.3509886e-38
0.19740582 0.012978236 1.477295 2.3326215e-38
0.19877195 0.012978236 1.477295 2.3326215e-38
0.15106662 0.011726632 1.491865 2.212195e-38
0.15244623 0.011726632 1.491865 2.3417691e-38
0.15361625 0.011710656 1.4898325 2.3509886e-38
0.15499398 0.011710656 1.4898325 2.3509886e-38
0.1563717 0.011710656 1.4898325 2.3509886e-38
0.15764087 0.011702597 1.4888073 2.3509886e-38
0.15901765 0.011702597 1.4888073 2.341805e-38
0.16039443 0.011702597 1.4888073 2.3509886e-38
0.16177121 0.011702597 1.4888073 2.3509886e-38
0.16314799 0.011702597 1.4888073 2.3509886e-38
0.1646176 0.011709201 1.4896475 2.3509886e-38
0.16599515 0.011709201 1.4896475 2.3509886e-38
0.1673727 0.011709201 1.4896475 2.3509886e-38
0.16880043 0.011712682 1.4900904 2.3509886e-38
0.1701784 0.011712682 1.4900904 2.3509886e-38
0.17155635 0.011712682 1.4900904 2.3509886e-38
0.17313242 0.0117261 1.4917973 2.3509886e-38
0.17450115 0.011725373 1.4917048 2.3509886e-38
0.1758806 0.011725373 1.4917048 2.3509886e-38
0.17726006 0.011725373 1.4917048 2.341805e-38
0.17863952 0.011725373 1.4917048 2.3509886e-38
0.18001896 0.011725373 1.4917048 2.3509886e-38
0.18200168 0.011764366 1.4966656 2.3509886e-38
0.18338571 0.011764366 1.4966656 2.3509886e-38
0.15106662 0.010347029 1.491865 2.0923045e-38
0.15244623 0.010347029 1.491865 2.3325497e-38
0.15361625 0.010332932 1.4898325 2.341805e-38
0.15499398 0.010332932 1.4898325 2.3509886e-38
0.1563717 0.010332932 1.4898325 2.3509886e-38
0.15764087 0.010325821 1.4888073 2.341805e-38
0.15901765 0.010325821 1.4888073 2.341805e-38
0.16039443 0.010325821 1.4888073 2.3509886e-38
0.16177121 0.010325821 1.4888073 2.3509886e-38
0.16314799 0.010325821 1.4888073 2.3509886e-38
0.1646176 0.010331648 1.4896475 2.3509886e-38
0.16599515 0.010331648 1.4896475 2.3509886e-38
0.1673727 0.010331648 1.4896475 2.3509886e-38
0.16880043 0.01033472 1.4900904 2.3509886e-38
0.1701784 0.01033472 1.4900904 2.3509886e-38
0.17155635 0.01033472 1.4900904 2.3509886e-38
0.17313242 0.010346559 1.4917973 2.3509886e-38
0.17450115 0.010345917 1.4917048 2.3509886e-38
0.1758806 0.010345917 1.4917048 2.341805e-38
0.17726006 0.010345917 1.4917048 2.341805e-38
0.17863952 0.010345917 1.4917048 2.3509886e-38
0.18001896 0.010345917 1.4917048 2.3509886e-38
0.18200168 0.010380324 1.4966656 2.3509886e-38
0.18338571 0.010380324 1.4966656 2.3509886e-38
0.15106662 0.0089674247 1.491865 2.0921606e-38
0.15244623 0.0089674247 1.491865 2.3509886e-38
0.15361625 0.0089552077 1.4898325 2.3509886e-38
0.15499398 0.0089552077 1.4898325 2.3509886e-38
0.1563717 0.0089552077 1.4898325 2.341805e-38
0.15764087 0.0089490451 1.4888073 2.3326215e-38
0.15901765 0.0089490451 1.4888073 2.3509886e-38
0.16039443 0.0089490451 1.4888073 2.3509886e-38
0.16177121 0.0089490451 1.4888073 2.3509886e-38
0.16314799 0.0089490451 1.4888073 2.3509886e-38
0.1646176 0.0089540957 1.4896475 2.3509886e-38
0.16599515 0.0089540957 1.4896475 2.3509886e-38
0.1673727 0.0089540957 1.4896475 2.3509886e-38
0.16880043 0.0089567574 1.4900904 2.3509886e-38
0.1701784 0.0089567574 1.4900904 2.3509886e-38
0.17155635 0.0089567574 1.4900904 2.3509886e-38
0.17313242 0.0089670178 1.4917973 2.3509886e-38
0.17450115 0.0089664618 1.4917048 2.3509886e-38
0.1758806 0.0089664618 1.4917048 2.341805e-38
0.17726006 0.0089664618 1.4917048 2.341805e-38
0.17863952 0.0089664618 1.4917048 2.341805e-38
0.18001896 0.0089664618 1.4917048 2.341805e-38
0.18200168 0.0089962808 1.4966656 2.3509886e-38
0.18338571 0.0089962808 1.4966656 2.3509886e-38
0.15042001 0.0075553423 1.4854794 2.2211982e-38
0.1517937 0.0075553423 1.4854794 2.3509886e-38
0.15315647 0.0075548035 1.4853734 2.3509886e-38
0.15453008 0.0075548035 1.4853734 2.341805e-38
0.15590368 0.0075548035 1.4853734 2.3326215e-38
0.1571116 0.0075468458 1.4838088 2.3142544e-38
0.15848376 0.0075468458 1.4838088 2.3234379e-38
0.15985592 0.0075468458 1.4838088 2.3509886e-38
0.16122808 0.0075468458 1.4838088 2.3326215e-38
0.16260022 0.0075468458 1.4838088 2.341805e-38
0.16418143 0.0075564673 1.4857005 2.3509886e-38
0.16555533 0.0075564673 1.4857005 2.341805e-38
0.16692923 0.0075564673 1.4857005 2.341805e-38
0.1683508 0.007558607 1.4861212 2.341805e-38
0.16972509 0.007558607 1.4861212 2.341805e-38
0.17109938 0.007558607 1.4861212 2.341805e-38
0.17273322 0.0075699813 1.4883575 2.341805e-38
0.17396349 0.0075636297 1.4871087 2.341805e-38
0.17533869 0.0075636297 1.4871087 2.341805e-38
0.1767139 0.0075636297 1.4871087 2.341805e-38
0.1780891 0.0075636297 1.4871087 2.341805e-38
0.17946431 0.0075636297 1.4871087 2.341805e-38
0.18154261 0.0075930366 1.4928905 2.3509886e-38
0.18292315 0.0075930366 1.4928905 2.3509886e-38
0.1843037 0.0075930366 1.4928905 2.3326215e-38
0.15042001 0.0061816438 1.4854794 2.2948465e-38
0.1517937 0.0061816438 1.4854794 2.3509886e-38
0.15315647 0.0061812028 1.4853734 2.3509886e-38
0.15453008 0.0061812028 1.4853734 2.3509886e-38
0.15590368 0.0061812028 1.4853734 2.341805e-38
0.1571116 0.006174692 1.4838088 2.3234379e-38
0.15848376 0.006174692 1.4838088 2.3234379e-38
0.15985592 0.006174692 1.4838088 2.3234379e-38
0.16122808 0.006174692 1.4838088 2.3234379e-38
0.16260022 0.006174692 1.4838088 2.341805e-38
0.16418143 0.006182564 1.4857005 2.3509886e-38
0.16555533 0.006182564 1.4857005 2.341805e-38
0.16692923 0.006182564 1.4857005 2.3509886e-38
0.1683508 0.0061843144 1.4861212 2.3509886e-38
0.16972509 0.0061843144 1.4861212 2.3509886e-38
0.17109938 0.0061843144 1.4861212 2.3509886e-38
0.17273322 0.0061936211 1.4883575 2.341805e-38
0.17396349 0.0061884243 1.4871087 2.341805e-38
0.17533869 0.0061884243 1.4871087 2.341805e-38
0.1767139 0.0061884243 1.4871087 2.341805e-38
0.1780891 0.0061884243 1.4871087 2.3326215e-38
0.17946431 0.0061884243 1.4871087 2.341805e-38
0.18154261 0.0062124841 1.4928905 2.3509886e-38
0.18292315 0.0062124841 1.4928905 2.3509886e-38
0.1843037 0.0062124841 1.4928905 2.3234379e-38
0.15042001 0.0048079453 1.4854794 2.2578244e-38
0.1517937 0.0048079453 1.4854794 2.3509886e-38
0.15315647 0.0048076021 1.4853734 2.3509886e-38
0.15453008 0.0048076021 1.4853734 2.3509886e-38
0.15590368 0.0048076021 1.4853734 2.341805e-38
0.15708107 0.0048016044 1.4835203 2.3142544e-38
0.15845294 0.0048016044 1.4835203 2.3142544e-38
0.15982483 0.0048016044 1.4835203 2.3142544e-38
0.161182 0.0048011662 1.4833848 2.3142544e-38
0.16255377 0.0048011662 1.4833848 2.341805e-38
0.16392553 0.0048011662 1.4833848 2.341805e-38
0.1652973 0.0048011662 1.4833848 2.3326215e-38
0.16666906 0.0048011662 1.4833848 2.3326215e-38
0.16804613 0.004801318 1.4834318 2.3326215e-38
0.16941795 0.004801318 1.4834318 2.3326215e-38
0.17078975 0.004801318 1.4834318 2.3509886e-38
0.17249253 0.0048105484 1.4862837 2.341805e-38
0.17386697 0.0048105484 1.4862837 2.341805e-38
0.17524141 0.0048105484 1.4862837 2.341805e-38
0.1767139 0.004813219 1.4871087 2.3326215e-38
0.1780891 0.004813219 1.4871087 2.3326215e-38
0.17946431 0.004813219 1.4871087 2.341805e-38
0.18154261 0.0048319325 1.4928905 2.3326215e-38
0.18292315 0.0048319325 1.4928905 2.3326215e-38
0.1843037 0.0048319325 1.4928905 2.3326215e-38
0.19064142 0.0048526907 1.4993041 2.3326215e-38
0.19202791 0.0048526907 1.4993041 2.3509886e-38
0.19341439 0.0048526907 1.4993041 2.3509886e-38
0.19480087 0.0048526907 1.4993041 2.3326215e-38
0.19618736 0.0048526907 1.4993041 2.3234379e-38
0.15041165 0.003434056 1.4853969 2.2853033e-38
0.15178527 0.003434056 1.4853969 2.3509886e-38
0.15315278 0.0034339188 1.4853376 2.3509886e-38
0.15452635 0.0034339188 1.4853376 2.3509886e-38
0.15589993 0.0034339188 1.4853376 2.3326215e-38
0.15708107 0.0034297174 1.4835203 2.3050708e-38
0.15845294 0.0034297174 1.4835203 2.3050708e-38
0.15982483 0.0034297174 1.4835203 2.3142544e-38
0.161182 0.0034294042 1.4833848 2.3326215e-38
0.16255377 0.0034294042 1.4833848 2.341805e-38
0.16392553 0.0034294042 1.4833848 2.3326215e-38
0.1652973 0.0034294042 1.4833848 2.3326215e-38
0.16666906 0.0034294042 1.4833848 2.3326215e-38
0.16804613 0.003429513 1.4834318 2.3326215e-38
0.16941795 0.003429513 1.4834318 2.3326215e-38
0.17078975 0.003429513 1.4834318 2.3509886e-38
0.17249253 0.003436106 1.4862837 2.3509886e-38
0.17386697 0.003436106 1.4862837 2.3509886e-38
0.17524141 0.003436106 1.4862837 2.3509886e-38
0.17677465 0.0034391955 1.48762 2.3326215e-38
0.17815033 0.0034391955 1.48762 2.3326215e-38
0.17952602 0.0034391955 1.48762 2.341805e-38
0.18178965 0.0034560768 1.494922 2.3234379e-38
0.18317208 0.0034560768 1.494922 2.3234379e-38
0.18455452 0.0034560768 1.494922 2.3326215e-38
0.19064142 0.0034662075 1.4993041 2.3509886e-38
0.19202791 0.0034662075 1.4993041 2.3234379e-38
0.19341439 0.0034662075 1.4993041 2.3326215e-38
0.19480087 0.0034662075 1.4993041 2.3509886e-38
0.19618736 0.0034662075 1.4993041 2.3326215e-38
0.15041165 0.0020604336 1.4853969 2.3498403e-38
0.15178527 0.0020604336 1.4853969 2.3509886e-38
0.15315278 0.0020603514 1.4853376 2.3509886e-38
0.15452635 0.0020603514 1.4853376 2.3509886e-38
0.15589993 0.0020603514 1.4853376 2.3326215e-38
0.15708107 0.0020578306 1.4835203 2.3050708e-38
0.15845294 0.0020578306 1.4835203 2.3050708e-38
0.15982483 0.0020578306 1.4835203 2.3050708e-38
0.161182 0.0020576427 1.4833848 2.3326215e-38
0.16255377 0.0020576427 1.4833848 2.341805e-38
0.16392553 0.0020576427 1.4833848 2.3326215e-38
0.1652973 0.0020576427 1.4833848 2.3326215e-38
0.16666906 0.0020576427 1.4833848 2.3326215e-38
0.16804613 0.0020577079 1.4834318 2.3326215e-38
0.16941795 0.0020577079 1.4834318 2.341805e-38
0.17078975 0.0020577079 1.4834318 2.341805e-38
0.17249253 0.0020616637 1.4862837 2.341805e-38
0.17386697 0.0020616637 1.4862837 2.341805e-38
0.17524141 0.0020616637 1.4862837 2.3234379e-38
0.17677465 0.0020635172 1.48762 2.3050708e-38
0.17815033 0.0020635172 1.48762 2.3142544e-38
0.17952602 0.0020635172 1.48762 2.3142544e-38
0.18178965 0.0020736461 1.494922 2.3142544e-38
0.18317208 0.0020736461 1.494922 2.3142544e-38
0.18455452 0.0020736461 1.494922 2.3234379e-38
0.19064142 0.0020797246 1.4993041 2.3509886e-38
0.19202791 0.0020797246 1.4993041 2.3234379e-38
0.19341439 0.0020797246 1.4993041 2.3234379e-38
0.19480087 0.0020797246 1.4993041 2.3509886e-38
0.19618736 0.0020797246 1.4993041 2.3326215e-38
0.14984854 0.0006842399 1.4798359 2.3495884e-38
0.15121703 0.0006842399 1.4798359 2.3509886e-38
0.15258551 0.0006842399 1.4798359 2.3509886e-38
0.15395398 0.0006842399 1.4798359 2.3509886e-38
0.15532246 0.0006842399 1.4798359 2.3326215e-38
0.1565482 0.00068361656 1.4784877 2.3142544e-38
0.15791543 0.00068361656 1.4784877 2.3050708e-38
0.15928267 0.00068361656 1.4784877 2.3050708e-38
0.16051911 0.00068306003 1.4772841 2.3234379e-38
0.16188523 0.00068306003 1.4772841 2.341805e-38
0.16325136 0.00068306003 1.4772841 2.3326215e-38
0.16461746 0.00068306003 1.4772841 2.3234379e-38
0.16598359 0.00068306003 1.4772841 2.3234379e-38
0.16736546 0.00068312435 1.4774232 2.3326215e-38
0.16873172 0.00068312435 1.4774232 2.3326215e-38
0.17009796 0.00068312435 1.4774232 2.3326215e-38
0.17185721 0.00068469008 1.4808095 2.3326215e-38
0.17322659 0.00068469008 1.4808095 2.3234379e-38
0.17459597 0.00068469008 1.4808095 2.3050708e-38
0.17642571 0.00068648136 1.4846835 2.3050708e-38
0.17779867 0.00068648136 1.4846835 2.3142544e-38
0.17917164 0.00068648136 1.4846835 2.3234379e-38
0.18153951 0.00069026428 1.492865 2.3050708e-38
0.18292002 0.00069026428 1.492865 2.3050708e-38
0.18430056 0.00069026428 1.492865 2.3142544e-38
0.18931627 0.00068345229 1.4781324 2.3326215e-38
0.19068319 0.00068345229 1.4781324 2.3142544e-38
0.19205008 0.00068345229 1.4781324 2.3234379e-38
0.193417 0.00068345229 1.4781324 2.3326215e-38
0.1947839 0.00068345229 1.4781324 2.3142544e-38
0.14984854 -0.0006842399 1.4798359 2.3497686e-38
0.15121703 -0.0006842399 1.4798359 2.3509886e-38
0.15258551 -0.0006842399 1.4798359 2.3509168e-38
0.15395398 -0.0006842399 1.4798359 2.3326215e-38
0.15532246 -0.0006842399 1.4798359 2.3234379e-38
0.1565482 -0.00068361656 1.4784877 2.3050708e-38
0.15791543 -0.00068361656 1.4784877 2.3050708e-38
0.15928267 -0.00068361656 1.4784877 2.3050708e-38
0.16051911 -0.00068306003 1.4772841 2.3050708e-38
0.16188523 -0.00068306003 1.4772841 2.3326215e-38
0.16325136 -0.00068306003 1.4772841 2.3326215e-38
0.16461746 -0.00068306003 1.4772841 2.3234379e-38
0.16598359 -0.00068306003 1.4772841 2.3142544e-38
0.16736546 -0.00068312435 1.4774232 2.3142544e-38
0.16873172 -0.00068312435 1.4774232 2.3142544e-38
0.17009796 -0.00068312435 1.4774232 2.3234379e-38
0.17185721 -0.00068469008 1.4808095 2.3050708e-38
0.17322659 -0.00068469008 1.4808095 2.3050708e-38
0.17459597 -0.00068469008 1.4808095 2.3050708e-38
0.17642571 -0.00068648136 1.4846835 2.3050708e-38
0.17779867 -0.00068648136 1.4846835 2.3142544e-38
0.17917164 -0.00068648136 1.4846835 2.3142544e-38
0.18153951 -0.00069026428 1.492865 2.3142544e-38
0.18292002 -0.00069026428 1.492865 2.3050708e-38
0.18430056 -0.00069026428 1.492865 2.3142544e-38
0.18931627 -0.00068345229 1.4781324 2.3234379e-38
0.19068319 -0.00068345229 1.4781324 2.3050708e-38
0.19205008 -0.00068345229 1.4781324 2.3142544e-38
0.193417 -0.00068345229 1.4781324 2.3234379e-38
0.1947839 -0.00068345229 1.4781324 2.2958873e-38
0.14984854 -0.0020527197 1.4798359 2.3313655e-38
0.15121703 -0.0020527197 1.4798359 2.3509886e-38
0.15258551 -0.0020527197 1.4798359 2.3509527e-38
0.15395398 -0.0020527197 1.4798359 2.3326215e-38
0.15532246 -0.0020527197 1.4798359 2.3234379e-38
0.1565482 -0.0020508496 1.4784877 2.2958873e-38
0.15791543 -0.0020508496 1.4784877 2.2958873e-38
0.15928267 -0.0020508496 1.4784877 2.3050708e-38
0.16051911 -0.00204918 1.4772841 2.3142544e-38
0.16188523 -0.00204918 1.4772841 2.3326215e-38
0.16325136 -0.00204918 1.4772841 2.3234379e-38
0.16461746 -0.00204918 1.4772841 2.3234379e-38
0.16598359 -0.00204918 1.4772841 2.3142544e-38
0.16736546 -0.002049373 1.4774232 2.3142544e-38
0.16873172 -0.002049373 1.4774232 2.3142544e-38
0.17009796 -0.002049373 1.4774232 2.3234379e-38
0.17185721 -0.0020540701 1.4808095 2.3050708e-38
0.17322659 -0.0020540701 1.4808095 2.3050708e-38
0.17459597 -0.0020540701 1.4808095 2.3142544e-38
0.17642571 -0.0020594441 1.4846835 2.3050708e-38
0.17779867 -0.0020594441 1.4846835 2.3050708e-38
0.17917164 -0.0020594441 1.4846835 2.3050708e-38
0.18153951 -0.0020707927 1.492865 2.3050708e-38
0.18292002 -0.0020707927 1.492865 2.3142544e-38
0.18430056 -0.0020707927 1.492865 2.3142544e-38
0.18931627 -0.0020503567 1.4781324 2.3142544e-38
0.19068319 -0.0020503567 1.4781324 2.3050708e-38
0.19205008 -0.0020503567 1.4781324 2.3050708e-38
0.193417 -0.0020503567 1.4781324 2.3050708e-38
0.1947839 -0.0020503567 1.4781324 2.2958873e-38
0.14970119 -0.0034178353 1.4783807 2.313214e-38
0.15106833 -0.0034178353 1.4783807 2.3509886e-38
0.15243545 -0.0034178353 1.4783807 2.341805e-38
0.15368482 -0.0034152183 1.4772487 2.3326215e-38
0.15505092 -0.0034152183 1.4772487 2.3050708e-38
0.156417 -0.0034152183 1.4772487 2.2958873e-38
0.15770836 -0.0034136008 1.476549 2.2958873e-38
0.1590738 -0.0034136008 1.476549 2.3050708e-38
0.16027467 -0.0034100993 1.4750345 2.3142544e-38
0.16163871 -0.0034100993 1.4750345 2.3050708e-38
0.16300274 -0.0034100993 1.4750345 2.2958873e-38
0.1643668 -0.0034100993 1.4750345 2.2958873e-38
0.16573083 -0.0034100993 1.4750345 2.3050708e-38
0.16717023 -0.0034116372 1.4756997 2.3142544e-38
0.16853487 -0.0034116372 1.4756997 2.3050708e-38
0.16989954 -0.0034116372 1.4756997 2.2958873e-38
0.17168516 -0.003420023 1.479327 2.2958873e-38
0.17305318 -0.003420023 1.479327 2.3050708e-38
0.17442118 -0.003420023 1.479327 2.3050708e-38
0.17635718 -0.0034310734 1.4841068 2.3142544e-38
0.17772961 -0.0034310734 1.4841068 2.3050708e-38
0.17910203 -0.0034310734 1.4841068 2.3050708e-38
0.18123345 -0.0034455028 1.4903482 2.3050708e-38
0.18261166 -0.0034455028 1.4903482 2.3142544e-38
0.18398985 -0.0034455028 1.4903482 2.3142544e-38
0.18892343 -0.0034101701 1.4750651 2.2958873e-38
0.1902875 -0.0034101701 1.4750651 2.3142544e-38
0.19165157 -0.0034101701 1.4750651 2.3142544e-38
0.19301564 -0.0034101701 1.4750651 2.2958873e-38
0.1943797 -0.0034101701 1.4750651 2.3050708e-38
0.14970119 -0.0047849696 1.4783807 2.2766592e-38
0.15106833 -0.0047849696 1.4783807 2.3509886e-38
0.15243545 -0.0047849696 1.4783807 2.3326215e-38
0.15368482 -0.0047813058 1.4772487 2.3234379e-38
0.15505092 -0.0047813058 1.4772487 2.3050708e-38
0.156417 -0.0047813058 1.4772487 2.2958873e-38
0.15770836 -0.0047790413 1.476549 2.2867037e-38
0.1590738 -0.0047790413 1.476549 2.2958873e-38
0.16027467 -0.0047741393 1.4750345 2.2958873e-38
0.16163871 -0.0047741393 1.4750345 2.2958873e-38
0.16300274 -0.0047741393 1.4750345 2.2958873e-38
0.1643668 -0.0047741393 1.4750345 2.3050708e-38
0.16573083 -0.0047741393 1.4750345 2.3050708e-38
0.16717023 -0.004776292 1.4756997 2.3050708e-38
0.16853487 -0.004776292 1.4756997 2.3050708e-38
0.16989954 -0.004776292 1.4756997 2.3050708e-38
0.17168516 -0.0047880323 1.479327 2.2958873e-38
0.17305318 -0.0047880323 1.479327 2.2958873e-38
0.17442118 -0.0047880323 1.479327 2.3050708e-38
0.17635718 -0.0048035029 1.4841068 2.3234379e-38
0.17772961 -0.0048035029 1.4841068 2.3142544e-38
0.17910203 -0.0048035029 1.4841068 2.3050708e-38
0.18123345 -0.0048237043 1.4903482 2.2958873e-38
0.18261166 -0.0048237043 1.4903482 2.2958873e-38
0.18398985 -0.0048237043 1.4903482 2.3050708e-38
0.18892343 -0.0047742384 1.4750651 2.2958873e-38
0.1902875 -0.0047742384 1.4750651 2.3050708e-38
0.19165157 -0.0047742384 1.4750651 2.3050708e-38
0.19301564 -0.0047742384 1.4750651 2.2958873e-38
0.1943797 -0.0047742384 1.4750651 2.2958873e-38
0.14970119 -0.0061521037 1.4783807 2.2860221e-38
0.15106833 -0.0061521037 1.4783807 2.3509886e-38
0.15243545 -0.0061521037 1.4783807 2.3142544e-38
0.15368482 -0.0061473926 1.4772487 2.2958873e-38
0.15505092 -0.0061473926 1.4772487 2.2958873e-38
0.156417 -0.0061473926 1.4772487 2.2958873e-38
0.15770836 -0.0061444812 1.476549 2.2958873e-38
0.1590738 -0.0061444812 1.476549 2.2958873e-38
0.16027467 -0.0061381785 1.4750345 2.2958873e-38
0.16163871 -0.0061381785 1.4750345 2.2958873e-38
0.16300274 -0.0061381785 1.4750345 2.2867037e-38
0.1643668 -0.0061381785 1.4750345 2.2958873e-38
0.16573083 -0.0061381785 1.4750345 2.2958873e-38
0.16717023 -0.0061409469 1.4756997 2.2958873e-38
0.16853487 -0.0061409469 1.4756997 2.3050708e-38
0.16989954 -0.0061409469 1.4756997 2.2958873e-38
0.17168516 -0.0061560413 1.479327 2.2958873e-38
0.17305318 -0.0061560413 1.479327 2.2958873e-38
0.17442118 -0.0061560413 1.479327 2.3050708e-38
0.17635718 -0.006175932 1.4841068 2.3050708e-38
0.17772961 -0.006175932 1.4841068 2.3050708e-38
0.17910203 -0.006175932 1.4841068 2.2958873e-38
0.18123345 -0.0062019047 1.4903482 2.2958873e-38
0.18261166 -0.0062019047 1.4903482 2.2958873e-38
0.18398985 -0.0062019047 1.4903482 2.2958873e-38
0.18892343 -0.0061383061 1.4750651 2.2958873e-38
0.1902875 -0.0061383061 1.4750651 2.3050708e-38
0.19165157 -0.0061383061 1.4750651 2.3050708e-38
0.19301564 -0.0061383061 1.4750651 2.2958873e-38
0.1943797 -0.0061383061 1.4750651 2.2958873e-38
0.14946139 -0.0075071934 1.4760126 2.230885e-38
0.15082633 -0.0075071934 1.4760126 2.323402e-38
0.15219128 -0.0075071934 1.4760126 2.2958873e-38
0.15346831 -0.0075028953 1.4751675 2.2958873e-38
0.15483248 -0.0075028953 1.4751675 2.2958873e-38
0.15619664 -0.0075028953 1.4751675 2.2958873e-38
0.15749021 -0.0074995337 1.4745066 2.3050708e-38
0.15885377 -0.0074995337 1.4745066 2.3050708e-38
0.16021731 -0.0074995337 1.4745066 2.2958873e-38
0.16137214 -0.0074898461 1.4726019 2.2867037e-38
0.16273393 -0.0074898461 1.4726019 2.2683366e-38
0.16409571 -0.0074898461 1.4726019 2.2958873e-38
0.16545752 -0.0074898461 1.4726019 2.2958873e-38
0.1668193 -0.0074898461 1.4726019 2.2958873e-38
0.16834082 -0.0074969595 1.4740005 2.2958873e-38
0.1697039 -0.0074969595 1.4740005 2.2867037e-38
0.17139378 -0.0075112809 1.4768163 2.2867037e-38
0.17275947 -0.0075112809 1.4768163 2.2867037e-38
0.17412515 -0.0075112809 1.4768163 2.2867037e-38
0.1761463 -0.0075393356 1.4823322 2.2958873e-38
0.17751709 -0.0075393356 1.4823322 2.2958873e-38
0.17888789 -0.0075393356 1.4823322 2.2958873e-38
0.18075348 -0.007560032 1.4864013 2.3050708e-38
0.18212804 -0.007560032 1.4864013 2.3050708e-38
0.1835026 -0.007560032 1.4864013 2.3050708e-38
0.18986878 -0.0075399149 1.4824461 2.2958873e-38
0.19123967 -0.0075399149 1.4824461 2.3050708e-38
0.19261056 -0.0075399149 1.4824461 2.3050708e-38
0.19398145 -0.0075399149 1.4824461 2.2958873e-38
0.19535235 -0.0075399149 1.4824461 2.2958873e-38
0.14813589 -0.0088745002 1.4764056 2.1752814e-38
0.14946139 -0.0088721374 1.4760126 2.2862374e-38
0.15082633 -0.0088721374 1.4760126 2.2957438e-38
0.15219128 -0.0088721374 1.4760126 2.2867037e-38
0.15346831 -0.008867058 1.4751675 2.2958873e-38
0.15483248 -0.008867058 1.4751675 2.2867037e-38
0.15619664 -0.008867058 1.4751675 2.2867037e-38
0.15749021 -0.0088630849 1.4745066 2.2958873e-38
0.15885377 -0.0088630849 1.4745066 2.2958873e-38
0.16021731 -0.0088630849 1.4745066 2.2867037e-38
0.16137214 -0.0088516362 1.4726019 2.2683366e-38
0.16273393 -0.0088516362 1.4726019 2.2867037e-38
0.16409571 -0.0088516362 1.4726019 2.2958873e-38
0.16545752 -0.0088516362 1.4726019 2.2958873e-38
0.1668193 -0.0088516362 1.4726019 2.2867037e-38
0.16834082 -0.0088600433 1.4740005 2.2867037e-38
0.1697039 -0.0088600433 1.4740005 2.2683366e-38
0.17139378 -0.0088769682 1.4768163 2.2683366e-38
0.17275947 -0.0088769682 1.4768163 2.2867037e-38
0.17412515 -0.0088769682 1.4768163 2.2867037e-38
0.1761463 -0.0089101242 1.4823322 2.2867037e-38
0.17751709 -0.0089101242 1.4823322 2.2867037e-38
0.17888789 -0.0089101242 1.4823322 2.2958873e-38
0.18075348 -0.0089345835 1.4864013 2.2958873e-38
0.18212804 -0.0089345835 1.4864013 2.3050708e-38
0.1835026 -0.0089345835 1.4864013 2.3050708e-38
0.18986878 -0.0089108087 1.4824461 2.3050708e-38
0.19123967 -0.0089108087 1.4824461 2.3050708e-38
0.19261056 -0.0089108087 1.4824461 2.3050708e-38
0.19398145 -0.0089108087 1.4824461 2.2958873e-38
0.19535235 -0.0089108087 1.4824461 2.2958873e-38
0.14813589 -0.010239808 1.4764056 2.2121591e-38
0.14946139 -0.010237082 1.4760126 2.3046762e-38
0.15082633 -0.010237082 1.4760126 2.2773049e-38
0.15219128 -0.010237082 1.4760126 2.3050708e-38
0.15346831 -0.010231221 1.4751675 2.2958873e-38
0.15483248 -0.010231221 1.4751675 2.2958873e-38
0.15619664 -0.010231221 1.4751675 2.2958873e-38
0.15749021 -0.010226637 1.4745066 2.2867037e-38
0.15885377 -0.010226637 1.4745066 2.2867037e-38
0.16021731 -0.010226637 1.4745066 2.2683366e-38
0.16137214 -0.010213426 1.4726019 2.2683366e-38
0.16273393 -0.010213426 1.4726019 2.2958873e-38
0.16409571 -0.010213426 1.4726019 2.2958873e-38
0.16545752 -0.010213426 1.4726019 2.2958873e-38
0.1668193 -0.010213426 1.4726019 2.2867037e-38
0.16834082 -0.010223127 1.4740005 2.2867037e-38
0.1697039 -0.010223127 1.4740005 2.2867037e-38
0.17139378 -0.010242656 1.4768163 2.2958873e-38
0.17275947 -0.010242656 1.4768163 2.2958873e-38
0.17412515 -0.010242656 1.4768163 2.2867037e-38
0.1761463 -0.010280913 1.4823322 2.2867037e-38
0.17751709 -0.010280913 1.4823322 2.2867037e-38
0.17888789 -0.010280913 1.4823322 2.2867037e-38
0.18075348 -0.010309135 1.4864013 2.2867037e-38
0.18212804 -0.010309135 1.4864013 2.2867037e-38
0.1835026 -0.010309135 1.4864013 2.2867037e-38
0.18986878 -0.010281703 1.4824461 2.2958873e-38
0.19123967 -0.010281703 1.4824461 2.2958873e-38
0.19261056 -0.010281703 1.4824461 2.3050708e-38
0.19398145 -0.010281703 1.4824461 2.2958873e-38
0.19535235 -0.010281703 1.4824461 2.3050708e-38
0.1478076 -0.011579396 1.4731337 2.1569143e-38
0.14916988 -0.011579396 1.4731337 2.2586508e-38
0.15053216 -0.011579396 1.4731337 2.2588661e-38
0.15202956 -0.011589698 1.4744442 2.286632e-38
0.15335125 -0.011586539 1.4740423 2.2958873e-38
0.15471438 -0.011586539 1.4740423 2.2958873e-38
0.15607749 -0.011586539 1.4740423 2.2958873e-38
0.15739974 -0.01158353 1.4736596 2.2867037e-38
0.15876251 -0.01158353 1.4736596 2.2867037e-38
0.16012529 -0.01158353 1.4736596 2.2867037e-38
0.16126493 -0.011567526 1.4716235 2.2867037e-38
0.16262582 -0.011567526 1.4716235 2.2958873e-38
0.1639867 -0.011567526 1.4716235 2.2958873e-38
0.16534759 -0.011567526 1.4716235 2.2958873e-38
0.16670847 -0.011567526 1.4716235 2.2867037e-38
0.16820377 -0.011576777 1.4728005 2.2867037e-38
0.16956575 -0.011576777 1.4728005 2.2867037e-38
0.17105837 -0.011585626 1.4739262 2.2867037e-38
0.17242138 -0.011585626 1.4739262 2.2867037e-38
0.17378439 -0.011585626 1.4739262 2.2683366e-38
0.17563513 -0.011617888 1.4780306 2.2867037e-38
0.17700195 -0.011617888 1.4780306 2.2867037e-38
0.17836876 -0.011617888 1.4780306 2.2683366e-38
0.18010528 -0.011641786 1.4810709 2.2683366e-38
0.18147491 -0.011641786 1.4810709 2.2683366e-38
0.18284453 -0.011641786 1.4810709 2.2867037e-38
0.18577354 -0.011740334 1.4936082 2.2867037e-38
0.18715475 -0.011740334 1.4936082 2.2867037e-38
0.18853597 -0.011740334 1.4936082 2.2958873e-38
0.18837762 -0.01156108 1.4708035 2.2867037e-38
0.18973774 -0.01156108 1.4708035 2.2867037e-38
0.19109787 -0.01156108 1.4708035 2.2867037e-38
0.19245799 -0.01156108 1.4708035 2.2867037e-38
0.19381812 -0.01156108 1.4708035 2.2958873e-38
0.1478076 -0.012941678 1.4731337 2.0278407e-38
0.14916988 -0.012941678 1.4731337 2.1756402e-38
0.15053216 -0.012941678 1.4731337 2.2772691e-38
0.15202956 -0.012953191 1.4744442 2.3050708e-38
0.15335125 -0.01294966 1.4740423 2.2958873e-38
0.15471438 -0.01294966 1.4740423 2.2958873e-38
0.15607749 -0.01294966 1.4740423 2.2958873e-38
0.15739974 -0.012946299 1.4736596 2.2867037e-38
0.15876251 -0.012946299 1.4736596 2.2867037e-38
0.16012529 -0.012946299 1.4736596 2.2867037e-38
0.16126493 -0.012928411 1.4716235 2.2867037e-38
0.16262582 -0.012928411 1.4716235 2.2867037e-38
0.1639867 -0.012928411 1.4716235 2.2958873e-38
0.16534759 -0.012928411 1.4716235 2.2867037e-38
0.16670847 -0.012928411 1.4716235 2.2867037e-38
0.16820377 -0.012938751 1.4728005 2.2683366e-38
0.16956575 -0.012938751 1.4728005 2.2683366e-38
0.17105837 -0.012948641 1.4739262 2.2683366e-38
0.17242138 -0.012948641 1.4739262 2.2867037e-38
0.17378439 -0.012948641 1.4739262 2.2683366e-38
0.17563513 -0.012984699 1.4780306 2.2958873e-38
0.17700195 -0.012984699 1.4780306 2.2867037e-38
0.17836876 -0.012984699 1.4780306 2.2683366e-38
0.18010528 -0.013011408 1.4810709 2.2867037e-38
0.18147491 -0.013011408 1.4810709 2.2958873e-38
0.18284453 -0.013011408 1.4810709 2.2958873e-38
0.18577354 -0.01312155 1.4936082 2.2958873e-38
0.18715475 -0.01312155 1.4936082 2.2958873e-38
0.18853597 -0.01312155 1.4936082 2.2958873e-38
0.18837762 -0.012921208 1.4708035 2.2867037e-38
0.18973774 -0.012921208 1.4708035 2.2867037e-38
0.19109787 -0.012921208 1.4708035 2.2867037e-38
0.19245799 -0.012921208 1.4708035 2.2867037e-38
0.19381812 -0.012921208 1.4708035 2.3142544e-38
0.1478076 -0.014303961 1.4731337 2.0093297e-38
0.14916988 -0.014303961 1.4731337 2.1571294e-38
0.15053216 -0.014303961 1.4731337 2.2772691e-38
0.15202956 -0.014316685 1.4744442 2.286632e-38
0.15335125 -0.014312783 1.4740423 2.2774843e-38
0.15471438 -0.014312783 1.4740423 2.2867037e-38
0.15607749 -0.014312783 1.4740423 2.2591531e-38
0.15739974 -0.014309067 1.4736596 2.2499336e-38
0.15876251 -0.014309067 1.4736596 2.2683007e-38
0.16012529 -0.014309067 1.4736596 2.2683366e-38
0.16126493 -0.014289297 1.4716235 2.2867037e-38
0.16262582 -0.014289297 1.4716235 2.2683366e-38
0.1639867 -0.014289297 1.4716235 2.2683366e-38
0.16534759 -0.014289297 1.4716235 2.2683366e-38
0.16670847 -0.014289297 1.4716235 2.2683366e-38
0.16820377 -0.014300725 1.4728005 2.2591531e-38
0.16956575 -0.014300725 1.4728005 2.2591531e-38
0.17105837 -0.014311655 1.4739262 2.2867037e-38
0.17242138 -0.014311655 1.4739262 2.2958873e-38
0.17378439 -0.014311655 1.4739262 2.3050708e-38
0.17563513 -0.014351509 1.4780306 2.2867037e-38
0.17700195 -0.014351509 1.4780306 2.2683366e-38
0.17836876 -0.014351509 1.4780306 2.2683366e-38
0.18010528 -0.01438103 1.4810709 2.2867037e-38
0.18147491 -0.01438103 1.4810709 2.3050708e-38
0.18284453 -0.01438103 1.4810709 2.3050708e-38
0.18577354 -0.014502767 1.4936082 2.3050708e-38
0.18715475 -0.014502767 1.4936082 2.2958873e-38
0.18853597 -0.014502767 1.4936082 2.2958873e-38
0.18837762 -0.014281334 1.4708035 2.2867037e-38
0.18973774 -0.014281334 1.4708035 2.2867037e-38
0.19109787 -0.014281334 1.4708035 2.2958873e-38
0.19245799 -0.014281334 1.4708035 2.3050708e-38
0.19381812 -0.014281334 1.4708035 2.3050708e-38
0.14883028 -0.015630577 1.46978 2.1755684e-38
0.15018946 -0.015630577 1.46978 2.2588661e-38
0.15169211 -0.015645374 1.4711714 2.2773767e-38
0.15305258 -0.015645374 1.4711714 2.286632e-38
0.15441304 -0.015645374 1.4711714 2.2682649e-38
0.15578674 -0.015646704 1.4712963 2.2499336e-38
0.15714732 -0.015646704 1.4712963 2.2591531e-38
0.1585079 -0.015646704 1.4712963 2.2775202e-38
0.15987954 -0.015647784 1.471398 2.2775202e-38
0.16115259 -0.015639281 1.4705983 2.2775202e-38
0.16251253 -0.015639281 1.4705983 2.2867037e-38
0.16387247 -0.015639281 1.4705983 2.2591531e-38
0.16523241 -0.015639281 1.4705983 2.2591531e-38
0.16659233 -0.015639281 1.4705983 2.2683366e-38
0.16797659 -0.015641544 1.4708112 2.2683366e-38
0.16933672 -0.015641544 1.4708112 2.2867037e-38
0.17069685 -0.015641544 1.4708112 2.2683366e-38
0.17209975 -0.015645431 1.4711767 2.2683366e-38
0.17346022 -0.015645431 1.4711767 2.2683366e-38
0.17500512 -0.015661938 1.4727288 2.2683366e-38
0.17636704 -0.015661938 1.4727288 2.2591531e-38
0.17772895 -0.015661938 1.4727288 2.2499695e-38
0.1794741 -0.015695453 1.4758804 2.2591531e-38
0.18083891 -0.015695453 1.4758804 2.2683366e-38
0.18220374 -0.015695453 1.4758804 2.2867037e-38
0.18478279 -0.015799271 1.4856427 2.2958873e-38
0.18615663 -0.015799271 1.4856427 2.3050708e-38
0.18753049 -0.015799271 1.4856427 2.2867037e-38
0.18877356 -0.015674338 1.473895 2.2867037e-38
0.19013655 -0.015674338 1.473895 2.2958873e-38
0.19149953 -0.015674338 1.473895 2.3050708e-38
0.19286253 -0.015674338 1.473895 2.3050708e-38
0.1942255 -0.015674338 1.473895 2.2958873e-38
0.14883028 -0.016989758 1.46978 2.2401761e-38
0.15018946 -0.016989758 1.46978 2.240499e-38
0.15169211 -0.017005842 1.4711714 2.2682649e-38
0.15305258 -0.017005842 1.4711714 2.2590096e-38
0.15441304 -0.017005842 1.4711714 2.2407142e-38
0.15578674 -0.017007286 1.4712963 2.2407142e-38
0.15714732 -0.017007286 1.4712963 2.2591531e-38
0.1585079 -0.017007286 1.4712963 2.2775202e-38
0.15987954 -0.017008461 1.471398 2.2683007e-38
0.16115259 -0.016999219 1.4705983 2.2683007e-38
0.16251253 -0.016999219 1.4705983 2.2591531e-38
0.16387247 -0.016999219 1.4705983 2.2591531e-38
0.16523241 -0.016999219 1.4705983 2.2683366e-38
0.16659233 -0.016999219 1.4705983 2.2683366e-38
0.16797659 -0.017001679 1.4708112 2.2683366e-38
0.16933672 -0.017001679 1.4708112 2.2867037e-38
0.17069685 -0.017001679 1.4708112 2.2591531e-38
0.17209975 -0.017005904 1.4711767 2.2591531e-38
0.17346022 -0.017005904 1.4711767 2.2591531e-38
0.17500512 -0.017023845 1.4727288 2.2683366e-38
0.17636704 -0.017023845 1.4727288 2.2591531e-38
0.17772895 -0.017023845 1.4727288 2.2499695e-38
0.1794741 -0.017060274 1.4758804 2.2499695e-38
0.18083891 -0.017060274 1.4758804 2.2591531e-38
0.18220374 -0.017060274 1.4758804 2.2683366e-38
0.18478279 -0.017173121 1.4856427 2.2958873e-38
0.18615663 -0.017173121 1.4856427 2.2958873e-38
0.18753049 -0.017173121 1.4856427 2.2867037e-38
0.18877356 -0.017037325 1.473895 2.2867037e-38
0.19013655 -0.017037325 1.473895 2.2867037e-38
0.19149953 -0.017037325 1.473895 2.3050708e-38
0.19286253 -0.017037325 1.473895 2.3050708e-38
0.1942255 -0.017037325 1.473895 2.2958873e-38
0.14883028 -0.018348938 1.46978 2.2309567e-38
0.15018946 -0.018348938 1.46978 2.2313872e-38
0.15169211 -0.018366309 1.4711714 2.2406066e-38
0.15305258 -0.018366309 1.4711714 2.2590096e-38
0.15441304 -0.018366309 1.4711714 2.2406783e-38
0.15578674 -0.018367868 1.4712963 2.2407142e-38
0.15714732 -0.018367868 1.4712963 2.2499336e-38
0.1585079 -0.018367868 1.4712963 2.2590454e-38
0.15987954 -0.018369138 1.471398 2.2590813e-38
0.16115259 -0.018359154 1.4705983 2.268229e-38
0.16251253 -0.018359154 1.4705983 2.2683007e-38
0.16387247 -0.018359154 1.4705983 2.2499695e-38
0.16523241 -0.018359154 1.4705983 2.2591531e-38
0.16659233 -0.018359154 1.4705983 2.2867037e-38
0.16797659 -0.018361812 1.4708112 2.2775202e-38
0.16933672 -0.018361812 1.4708112 2.2775202e-38
0.17069685 -0.018361812 1.4708112 2.2499695e-38
0.17209975 -0.018366376 1.4711767 2.2499695e-38
0.17346022 -0.018366376 1.4711767 2.2499695e-38
0.17500512 -0.018385753 1.4727288 2.2591531e-38
0.17636704 -0.018385753 1.4727288 2.2591531e-38
0.17772895 -0.018385753 1.4727288 2.2591531e-38
0.1794741 -0.018425098 1.4758804 2.2591531e-38
0.18083891 -0.018425098 1.4758804 2.2775202e-38
0.18220374 -0.018425098 1.4758804 2.2867037e-38
0.18478279 -0.018546971 1.4856427 2.2867037e-38
0.18615663 -0.018546971 1.4856427 2.2867037e-38
0.18753049 -0.018546971 1.4856427 2.2867037e-38
0.18877356 -0.018400311 1.473895 2.2775202e-38
0.19013655 -0.018400311 1.473895 2.2867037e-38
0.19149953 -0.018400311 1.473895 2.3050708e-38
0.19286253 -0.018400311 1.473895 2.3050708e-38
0.1942255 -0.018400311 1.473895 2.2867037e-38
0.14412609 -0.019622801 1.4634172 1.5096785e-38
0.14547938 -0.019622801 1.4634172 1.8424803e-38
0.14683269 -0.019622801 1.4634172 1.9816713e-38
0.14818598 -0.019622801 1.4634172 2.1664207e-38
0.14953928 -0.019622801 1.4634172 2.2128407e-38
0.1509742 -0.019633416 1.4642088 2.2590096e-38
0.15232824 -0.019633416 1.4642088 2.268229e-38
0.15368226 -0.019633416 1.4642088 2.2406783e-38
0.15512514 -0.019644668 1.465048 2.2407142e-38
0.15647994 -0.019644668 1.465048 2.2407142e-38
0.15783475 -0.019644668 1.465048 2.2590813e-38
0.15935616 -0.01966523 1.4665813 2.2590813e-38
0.16071239 -0.01966523 1.4665813 2.2774484e-38
0.16206862 -0.01966523 1.4665813 2.2775202e-38
0.16349223 -0.01967334 1.4671862 2.2499695e-38
0.16482836 -0.019670876 1.4670024 2.2591531e-38
0.16618498 -0.019670876 1.4670024 2.2775202e-38
0.16754159 -0.019670876 1.4670024 2.2683007e-38
0.16889821 -0.019670876 1.4670024 2.2590813e-38
0.17025481 -0.019670876 1.4670024 2.2499695e-38
0.17166217 -0.019676691 1.4674361 2.2499695e-38
0.17301917 -0.019676691 1.4674361 2.2499695e-38
0.17437619 -0.019676691 1.4674361 2.2499695e-38
0.17578831 -0.01968286 1.4678962 2.2591531e-38
0.17714575 -0.01968286 1.4678962 2.2591531e-38
0.17893079 -0.019730011 1.4714125 2.2499695e-38
0.18029147 -0.019730011 1.4714125 2.2683007e-38
0.18165216 -0.019730011 1.4714125 2.2775202e-38
0.18326057 -0.019756716 1.4734042 2.2867037e-38
0.18462311 -0.019756716 1.4734042 2.2775202e-38
0.18598564 -0.019756716 1.4734042 2.2775202e-38
0.1881873 -0.019701919 1.4693176 2.2775202e-38
0.18954605 -0.019701919 1.4693176 2.2867037e-38
0.1909048 -0.019701919 1.4693176 2.2958873e-38
0.19226356 -0.019701919 1.4693176 2.2958873e-38
0.19362231 -0.019701919 1.4693176 2.2775202e-38
0.14412609 -0.020976098 1.4634172 1.5373015e-38
0.14547938 -0.020976098 1.4634172 1.8517358e-38
0.14683269 -0.020976098 1.4634172 2.0277691e-38
0.14818598 -0.020976098 1.4634172 2.1755684e-38
0.14953928 -0.020976098 1.4634172 2.2311719e-38
0.1509742 -0.020987445 1.4642088 2.2589378e-38
0.15232824 -0.020987445 1.4642088 2.268229e-38
0.15368226 -0.020987445 1.4642088 2.2498978e-38
0.15512514 -0.020999473 1.465048 2.2499336e-38
0.15647994 -0.020999473 1.465048 2.2499336e-38
0.15783475 -0.020999473 1.465048 2.2683007e-38
0.15935616 -0.021021452 1.4665813 2.2683007e-38
0.16071239 -0.021021452 1.4665813 2.2774484e-38
0.16206862 -0.021021452 1.4665813 2.2683007e-38
0.16349223 -0.021030122 1.4671862 2.2683007e-38
0.16482836 -0.021027487 1.4670024 2.2775202e-38
0.16618498 -0.021027487 1.4670024 2.2775202e-38
0.16754159 -0.021027487 1.4670024 2.2590813e-38
0.16889821 -0.021027487 1.4670024 2.2590813e-38
0.17025481 -0.021027487 1.4670024 2.2407142e-38
0.17166217 -0.021033704 1.4674361 2.2499695e-38
0.17301917 -0.021033704 1.4674361 2.2407142e-38
0.17437619 -0.021033704 1.4674361 2.2590813e-38
0.17578831 -0.0210403 1.4678962 2.2683007e-38
0.17714575 -0.0210403 1.4678962 2.2683007e-38
0.17893079 -0.021090701 1.4714125 2.2590813e-38
0.18029147 -0.021090701 1.4714125 2.2683007e-38
0.18165216 -0.021090701 1.4714125 2.2775202e-38
0.18326057 -0.021119248 1.4734042 2.2867037e-38
0.18462311 -0.021119248 1.4734042 2.2775202e-38
0.18598564 -0.021119248 1.4734042 2.2867037e-38
0.1881873 -0.021060672 1.4693176 2.2867037e-38
0.18954605 -0.021060672 1.4693176 2.2867037e-38
0.1909048 -0.021060672 1.4693176 2.2867037e-38
0.19226356 -0.021060672 1.4693176 2.2775202e-38
0.19362231 -0.021060672 1.4693176 2.2775202e-38
0.14412609 -0.022329396 1.4634172 1.574072e-38
0.14547938 -0.022329396 1.4634172 1.9807378e-38
0.14683269 -0.022329396 1.4634172 2.1567708e-38
0.14818598 -0.022329396 1.4634172 2.2493597e-38
0.14953928 -0.022329396 1.4634172 2.2404272e-38
0.1509742 -0.022341475 1.4642088 2.2497184e-38
0.15232824 -0.022341475 1.4642088 2.2590096e-38
0.15368226 -0.022341475 1.4642088 2.2499336e-38
0.15512514 -0.022354279 1.465048 2.2499336e-38
0.15647994 -0.022354279 1.465048 2.2407142e-38
0.15783475 -0.022354279 1.465048 2.2406425e-38
0.15935616 -0.022377675 1.4665813 2.2590813e-38
0.16071239 -0.022377675 1.4665813 2.2774484e-38
0.16206862 -0.022377675 1.4665813 2.2683007e-38
0.16349223 -0.022386905 1.4671862 2.2683007e-38
0.16482836 -0.0223841 1.4670024 2.2683007e-38
0.16618498 -0.0223841 1.4670024 2.2683007e-38
0.16754159 -0.0223841 1.4670024 2.2683007e-38
0.16889821 -0.0223841 1.4670024 2.2683007e-38
0.17025481 -0.0223841 1.4670024 2.2499695e-38
0.17166217 -0.022390716 1.4674361 2.2407142e-38
0.17301917 -0.022390716 1.4674361 2.2407142e-38
0.17437619 -0.022390716 1.4674361 2.2406425e-38
0.17578831 -0.022397738 1.4678962 2.2406425e-38
0.17714575 -0.022397738 1.4678962 2.2590813e-38
0.17893079 -0.022451391 1.4714125 2.2683007e-38
0.18029147 -0.022451391 1.4714125 2.2775202e-38
0.18165216 -0.022451391 1.4714125 2.2867037e-38
0.18326057 -0.02248178 1.4734042 2.2775202e-38
0.18462311 -0.02248178 1.4734042 2.2775202e-38
0.18598564 -0.02248178 1.4734042 2.2958873e-38
0.1881873 -0.022419425 1.4693176 2.2867037e-38
0.18954605 -0.022419425 1.4693176 2.2591531e-38
0.1909048 -0.022419425 1.4693176 2.2591531e-38
0.19226356 -0.022419425 1.4693176 2.2499695e-38
0.19362231 -0.022419425 1.4693176 2.2499695e-38
0.14401779 -0.023664894 1.4623175 1.6293173e-38
0.14537007 -0.023664894 1.4623175 2.0082886e-38
0.14672235 -0.023664894 1.4623175 2.1935409e-38
0.14793725 -0.023642939 1.4609609 2.2216297e-38
0.14928828 -0.023642939 1.4609609 2.2404272e-38
0.15063931 -0.023642939 1.4609609 2.2497184e-38
0.15199032 -0.023642939 1.4609609 2.2406066e-38
0.15334135 -0.023642939 1.4609609 2.2499336e-38
0.15471554 -0.023646478 1.4611795 2.2499336e-38
0.15606676 -0.023646478 1.4611795 2.2314948e-38
0.15741798 -0.023646478 1.4611795 2.2314231e-38
0.15907873 -0.023692574 1.464028 2.2406783e-38
0.16043259 -0.023692574 1.464028 2.268229e-38
0.16178645 -0.023692574 1.464028 2.2590813e-38
0.16326134 -0.023710152 1.4651141 2.2406425e-38
0.16461621 -0.023710152 1.4651141 2.2406425e-38
0.16597107 -0.023710152 1.4651141 2.2590813e-38
0.16739014 -0.023719249 1.4656763 2.2683007e-38
0.16874553 -0.023719249 1.4656763 2.2683007e-38
0.17010091 -0.023719249 1.4656763 2.2499695e-38
0.17146695 -0.023720723 1.4657673 2.2407142e-38
0.17282242 -0.023720723 1.4657673 2.2314948e-38
0.17417789 -0.023720723 1.4657673 2.2406425e-38
0.17561843 -0.023732217 1.4664776 2.2406425e-38
0.17697455 -0.023732217 1.4664776 2.2590813e-38
0.17865732 -0.023775687 1.4691638 2.2775202e-38
0.18001594 -0.023775687 1.4691638 2.2867037e-38
0.18137455 -0.023775687 1.4691638 2.2867037e-38
0.18284503 -0.023790244 1.4700632 2.2775202e-38
0.18420447 -0.023790244 1.4700632 2.2775202e-38
0.18556391 -0.023790244 1.4700632 2.2867037e-38
0.18859947 -0.024003567 1.483245 2.2867037e-38
0.1899711 -0.024003567 1.483245 2.2775202e-38
0.19134273 -0.024003567 1.483245 2.2591531e-38
0.14401779 -0.025017174 1.4623175 1.4452135e-38
0.14537007 -0.025017174 1.4623175 1.8977614e-38
0.14672235 -0.025017174 1.4623175 2.0553196e-38
0.14793725 -0.024993965 1.4609609 2.2124461e-38
0.14928828 -0.024993965 1.4609609 2.2312078e-38
0.15063931 -0.024993965 1.4609609 2.2405349e-38
0.15199032 -0.024993965 1.4609609 2.2222036e-38
0.15334135 -0.024993965 1.4609609 2.2590813e-38
0.15471554 -0.024997706 1.4611795 2.2683007e-38
0.15606676 -0.024997706 1.4611795 2.2406425e-38
0.15741798 -0.024997706 1.4611795 2.2314589e-38
0.15907873 -0.025046436 1.464028 2.2314589e-38
0.16043259 -0.025046436 1.464028 2.2406783e-38
0.16178645 -0.025046436 1.464028 2.2314589e-38
0.16326134 -0.025065018 1.4651141 2.2314231e-38
0.16461621 -0.025065018 1.4651141 2.2314231e-38
0.16597107 -0.025065018 1.4651141 2.2406425e-38
0.16739014 -0.025074637 1.4656763 2.2590813e-38
0.16874553 -0.025074637 1.4656763 2.2683007e-38
0.17010091 -0.025074637 1.4656763 2.2407142e-38
0.17146695 -0.025076192 1.4657673 2.2314948e-38
0.17282242 -0.025076192 1.4657673 2.2314948e-38
0.17417789 -0.025076192 1.4657673 2.2590813e-38
0.17561843 -0.025088346 1.4664776 2.2406783e-38
0.17697455 -0.025088346 1.4664776 2.2406783e-38
0.17865732 -0.025134299 1.4691638 2.2590813e-38
0.18001594 -0.025134299 1.4691638 2.2683007e-38
0.18137455 -0.025134299 1.4691638 2.2683007e-38
0.18284503 -0.025149686 1.4700632 2.2775202e-38
0.18420447 -0.025149686 1.4700632 2.2958873e-38
0.18556391 -0.025149686 1.4700632 2.2683007e-38
0.18859947 -0.025375199 1.483245 2.2499695e-38
0.1899711 -0.025375199 1.483245 2.2499695e-38
0.19134273 -0.025375199 1.483245 2.2499695e-38
0.14401779 -0.026369452 1.4623175 1.2241238e-38
0.14537007 -0.026369452 1.4623175 1.5015e-38
0.14672235 -0.026369452 1.4623175 1.9170262e-38
0.14793725 -0.02634499 1.4609609 2.1756043e-38
0.14928828 -0.02634499 1.4609609 2.2312078e-38
0.15063931 -0.02634499 1.4609609 2.2405349e-38
0.15199032 -0.02634499 1.4609609 2.2405704e-38
0.15334135 -0.02634499 1.4609609 2.2590096e-38
0.15471554 -0.026348932 1.4611795 2.268229e-38
0.15606676 -0.026348932 1.4611795 2.2406783e-38
0.15741798 -0.026348932 1.4611795 2.2314589e-38
0.15907873 -0.026400298 1.464028 2.2222392e-38
0.16043259 -0.026400298 1.464028 2.2222392e-38
0.16178645 -0.026400298 1.464028 2.2314589e-38
0.16326134 -0.026419884 1.4651141 2.2314231e-38
0.16461621 -0.026419884 1.4651141 2.2406425e-38
0.16597107 -0.026419884 1.4651141 2.2406425e-38
0.16739014 -0.026430022 1.4656763 2.2314231e-38
0.16874553 -0.026430022 1.4656763 2.2406425e-38
0.17010091 -0.026430022 1.4656763 2.2406425e-38
0.17146695 -0.026431661 1.4657673 2.2406425e-38
0.17282242 -0.026431661 1.4657673 2.2683007e-38
0.17417789 -0.026431661 1.4657673 2.2683007e-38
0.17561843 -0.026444472 1.4664776 2.2590813e-38
0.17697455 -0.026444472 1.4664776 2.2590813e-38
0.17865732 -0.02649291 1.4691638 2.2406783e-38
0.18001594 -0.02649291 1.4691638 2.2590813e-38
0.18137455 -0.02649291 1.4691638 2.2683007e-38
0.18284503 -0.026509129 1.4700632 2.2775202e-38
0.18420447 -0.026509129 1.4700632 2.2867037e-38
0.18556391 -0.026509129 1.4700632 2.2775202e-38
0.18859947 -0.026746832 1.483245 2.2499695e-38
0.1899711 -0.026746832 1.483245 2.2499695e-38
0.19134273 -0.026746832 1.483245 2.2499695e-38
0.14590968 -0.027568188 1.454218 1.7973518e-38
0.14717476 -0.027553266 1.4534309 2.2124461e-38
0.14851883 -0.027553266 1.4534309 2.2219884e-38
0.14986289 -0.027553266 1.4534309 2.2221319e-38
0.15120696 -0.027553266 1.4534309 2.2129841e-38
0.15255101 -0.027553266 1.4534309 2.2222036e-38
0.15398805 -0.027569911 1.4543089 2.2406425e-38
0.15533291 -0.027569911 1.4543089 2.2406783e-38
0.15667778 -0.027569911 1.4543089 2.2406783e-38
