# .PCD v0.7 - Point Cloud Data file format
VERSION 0.7
FIELDS x y z rgb
SIZE 4 4 4 4
TYPE F F F F
COUNT 1 1 1 1
WIDTH 1000
HEIGHT 1
VIEWPOINT 0 0 0 1 0 0 0
POINTS 1000
DATA ascii
0.22303222 0.0060784467 1.0112404 2.0659039e-38
0.22396737 0.0060784467 1.0112404 2.0934904e-38
0.22490253 0.0060784467 1.0112404 2.1395158e-38
0.22583766 0.0060784467 1.0112404 2.2775202e-38
0.22663687 0.006074803 1.0106342 2.3509886e-38
0.22757146 0.006074803 1.0106342 2.3509886e-38
0.22850604 0.006074803 1.0106342 2.3509886e-38
0.22944063 0.006074803 1.0106342 2.3509886e-38
0.23037522 0.006074803 1.0106342 2.0932393e-38
0.23156919 0.0060816151 1.0117675 2.0010081e-38
0.23250481 0.0060816151 1.0117675 1.9548027e-38
0.23344046 0.0060816151 1.0117675 1.9179603e-38
0.23453413 0.0060857162 1.0124497 1.8994856e-38
0.23545268 0.006085258 1.0123736 1.8719348e-38
0.23638888 0.006085258 1.0123736 1.8534596e-38
0.23732506 0.006085258 1.0123736 1.825837e-38
0.23784651 0.0060746651 1.0106113 1.8073978e-38
0.23878106 0.0060746651 1.0106113 1.7889583e-38
0.23971564 0.0060746651 1.0106113 1.7981057e-38
0.24047183 0.0060701626 1.0098622 1.8072174e-38
0.2414057 0.0060701626 1.0098622 1.8164009e-38
0.24233957 0.0060701626 1.0098622 1.8073613e-38
0.24325991 0.006069825 1.009806 1.7981777e-38
0.24419373 0.006069825 1.009806 1.8073973e-38
0.24512754 0.006069825 1.009806 1.8719342e-38
0.24606137 0.006069825 1.009806 1.9273595e-38
0.24699518 0.006069825 1.009806 1.9182118e-38
0.24863461 0.0060870997 1.0126799 1.8997723e-38
0.24957108 0.0060870997 1.0126799 1.9273951e-38
0.25050756 0.0060870997 1.0126799 1.9736727e-38
0.25310785 0.006127378 1.0193808 2.0382815e-38
0.25405052 0.006127378 1.0193808 2.1765011e-38
0.26030937 0.0062551233 1.0406332 2.3509886e-38
0.26127172 0.0062551233 1.0406332 2.3509886e-38
0.26382992 0.0062931911 1.0469663 2.3509886e-38
0.26479813 0.0062931911 1.0469663 2.3509886e-38
0.26576629 0.0062931911 1.0469663 2.3509886e-38
0.26703021 0.0063001681 1.0481271 1.6228251e-38
0.26799947 0.0063001681 1.0481271 1.3001767e-38
0.26896873 0.0063001681 1.0481271 1.3924081e-38
0.27091423 0.0063229529 1.0519177 1.8440586e-38
0.271887 0.0063229529 1.0519177 2.1298652e-38
0.27435356 0.0063575692 1.0576766 2.212769e-38
0.27521622 0.0063549033 1.0572331 2.2128766e-38
0.27619389 0.0063549033 1.0572331 2.2037289e-38
0.27717158 0.0063549033 1.0572331 2.1945449e-38
0.27814925 0.0063549033 1.0572331 2.1852176e-38
0.27912694 0.0063549033 1.0572331 2.1114967e-38
0.2808181 0.0063710911 1.0599262 1.9823508e-38
0.28179827 0.0063710911 1.0599262 1.8348375e-38
0.28277844 0.0063710911 1.0599262 1.7425696e-38
0.28418866 0.0063807466 1.0615325 1.7149829e-38
0.28517029 0.0063807466 1.0615325 1.733458e-38
0.2876693 0.0064145811 1.0671613 1.8533122e-38
0.28865615 0.0064145811 1.0671613 1.9546918e-38
0.28964302 0.0064145811 1.0671613 2.0838736e-38
0.29127809 0.0064288881 1.0695416 2.2129119e-38
0.29226717 0.0064288881 1.0695416 2.2774484e-38
0.29325622 0.0064288881 1.0695416 2.3142544e-38
0.29575565 0.0064618876 1.0750315 2.3142544e-38
0.29674977 0.0064618876 1.0750315 2.2681931e-38
0.165188 0.0057320753 1.1270012 2.1114247e-38
0.1662302 0.0057320753 1.1270012 2.1019895e-38
0.16727239 0.0057320753 1.1270012 2.0558556e-38
0.16831459 0.0057320753 1.1270012 1.9357135e-38
0.16659057 0.0056384495 1.1085931 1.585154e-38
0.16761574 0.0056384495 1.1085931 1.2623258e-38
0.16864091 0.0056384495 1.1085931 1.2438151e-38
0.16966608 0.0056384495 1.1085931 1.3175716e-38
0.16783437 0.0055440781 1.0900384 1.3267909e-38
0.16884239 0.0055440781 1.0900384 1.2163003e-38
0.16985039 0.0055440781 1.0900384 1.2164804e-38
0.16905005 0.0054853996 1.0785015 1.2719425e-38
0.1700474 0.0054853996 1.0785015 1.2443928e-38
0.17104474 0.0054853996 1.0785015 1.014193e-38
0.17154217 0.00546946 1.0753676 7.3778714e-39
0.17253661 0.00546946 1.0753676 5.9041875e-39
0.17353107 0.00546946 1.0753676 5.3528144e-39
0.17452551 0.00546946 1.0753676 5.5364798e-39
0.17415567 0.0054269466 1.0670089 5.9045378e-39
0.17514238 0.0054269466 1.0670089 5.7215787e-39
0.1761291 0.0054269466 1.0670089 6.4594997e-39
0.17516743 0.0053672465 1.055271 6.6428091e-39
0.17614329 0.0053672465 1.055271 8.0260995e-39
0.17711915 0.0053672465 1.055271 1.2544759e-38
0.17660563 0.0053223614 1.046446 1.8906613e-38
0.17757334 0.0053223614 1.046446 2.1395876e-38
0.17854103 0.0053223614 1.046446 2.1026022e-38
0.17905943 0.0053090393 1.0438267 2.1026022e-38
0.1800247 0.0053090393 1.0438267 2.1026022e-38
0.18098998 0.0053090393 1.0438267 2.1118217e-38
0.18195526 0.0053090393 1.0438267 2.1117499e-38
0.18229169 0.0052907872 1.0402381 2.0933111e-38
0.18325365 0.0052907872 1.0402381 2.1025305e-38
0.18421561 0.0052907872 1.0402381 2.1210052e-38
0.18451352 0.0052718148 1.0365078 2.1210052e-38
0.18547203 0.0052718148 1.0365078 2.0933111e-38
0.18643054 0.0052718148 1.0365078 2.0933111e-38
0.18701924 0.005261411 1.0344623 2.1117858e-38
0.18797587 0.005261411 1.0344623 2.1117858e-38
0.18893249 0.005261411 1.0344623 2.1117858e-38
0.18975998 0.0052578328 1.0337589 2.1210052e-38
0.19071595 0.0052578328 1.0337589 2.1394082e-38
0.19167192 0.0052578328 1.0337589 2.1486276e-38
0.19258344 0.0052566198 1.0335203 2.1670665e-38
0.19353919 0.0052566198 1.0335203 2.1670665e-38
0.19449495 0.0052566198 1.0335203 2.1670665e-38
0.19503073 0.0052453252 1.0312997 2.1670665e-38
0.19598442 0.0052453252 1.0312997 2.1763218e-38
0.19693811 0.0052453252 1.0312997 2.1763218e-38
0.19736186 0.0052312785 1.0285379 2.194653e-38
0.198313 0.0052312785 1.0285379 2.1485559e-38
0.19926414 0.0052312785 1.0285379 2.1393364e-38
0.19984001 0.0052214731 1.02661 2.1208976e-38
0.20078936 0.0052214731 1.02661 2.0932393e-38
0.20173873 0.0052214731 1.02661 2.0748005e-38
0.20229656 0.0052113868 1.024627 2.0563253e-38
0.20324409 0.0052113868 1.024627 2.0563253e-38
0.20419161 0.0052113868 1.024627 2.0563253e-38
0.20493288 0.0052061472 1.0235968 2.065545e-38
0.20587945 0.0052061472 1.0235968 2.065545e-38
0.20682603 0.0052061472 1.0235968 2.0748005e-38
0.20718251 0.0051913615 1.0206897 2.0932393e-38
0.2081264 0.0051913615 1.0206897 2.1117499e-38
0.20907028 0.0051913615 1.0206897 2.1117499e-38
0.20978671 0.0051857391 1.0195843 2.1025305e-38
0.21072958 0.0051857391 1.0195843 2.1025305e-38
0.21167244 0.0051857391 1.0195843 2.1116423e-38
0.21244062 0.0051814788 1.0187466 2.0933111e-38
0.21338271 0.0051814788 1.0187466 2.074944e-38
0.2143248 0.0051814788 1.0187466 2.038138e-38
0.21526688 0.0051814788 1.0187466 2.056541e-38
0.21620896 0.0051814788 1.0187466 2.0289904e-38
0.21734707 0.0051861559 1.0196662 2.0475009e-38
0.21829 0.0051861559 1.0196662 1.8999175e-38
0.21923295 0.0051861559 1.0196662 1.2084504e-38
0.21938369 0.0051674959 1.0159974 1.042606e-38
0.22032323 0.0051674959 1.0159974 1.3930217e-38
0.22126277 0.0051674959 1.0159974 1.9737456e-38
0.22220232 0.0051674959 1.0159974 2.1120728e-38
0.22209708 0.0051433011 1.0112404 2.0659757e-38
0.22303222 0.0051433011 1.0112404 2.0659039e-38
0.22396737 0.0051433011 1.0112404 2.0657963e-38
0.22490253 0.0051433011 1.0112404 2.1395158e-38
0.22583766 0.0051433011 1.0112404 2.2775202e-38
0.22663687 0.005140218 1.0106342 2.3509886e-38
0.22757146 0.005140218 1.0106342 2.3509886e-38
0.22850604 0.005140218 1.0106342 2.3509886e-38
0.22944063 0.005140218 1.0106342 2.3509886e-38
0.23037522 0.005140218 1.0106342 2.1393364e-38
0.23156919 0.0051459819 1.0117675 1.9641657e-38
0.23250481 0.0051459819 1.0117675 1.9363993e-38
0.23344046 0.0051459819 1.0117675 1.9179603e-38
0.23453413 0.005149452 1.0124497 1.9179603e-38
0.23545268 0.0051490646 1.0123736 1.8811541e-38
0.23638888 0.0051490646 1.0123736 1.8534952e-38
0.23732506 0.0051490646 1.0123736 1.8166171e-38
0.23784651 0.0051401015 1.0106113 1.7981783e-38
0.23878106 0.0051401015 1.0106113 1.7889583e-38
0.23971564 0.0051401015 1.0106113 1.7796666e-38
0.24047183 0.0051362915 1.0098622 1.7704467e-38
0.2414057 0.0051362915 1.0098622 1.7704467e-38
0.24233957 0.0051362915 1.0098622 1.7889217e-38
0.24325991 0.0051360056 1.009806 1.7981057e-38
0.24419373 0.0051360056 1.009806 1.798178e-38
0.24512754 0.0051360056 1.009806 1.8534952e-38
0.24606137 0.0051360056 1.009806 1.9089204e-38
0.24699518 0.0051360056 1.009806 1.908992e-38
0.24863461 0.0051506227 1.0126799 1.8997723e-38
0.24957108 0.0051506227 1.0126799 1.8813694e-38
0.25050756 0.0051506227 1.0126799 1.8354158e-38
0.25310785 0.0051847044 1.0193808 1.752584e-38
0.25405052 0.0051847044 1.0193808 1.8261604e-38
0.26030937 0.0052927965 1.0406332 2.2224189e-38
0.26127172 0.0052927965 1.0406332 2.3509886e-38
0.26382992 0.0053250077 1.0469663 2.3509886e-38
0.26479813 0.0053250077 1.0469663 2.3509886e-38
0.26576629 0.0053250077 1.0469663 2.3509886e-38
0.26703021 0.0053309114 1.0481271 2.1575598e-38
0.26799947 0.0053309114 1.0481271 1.5492129e-38
0.26896873 0.0053309114 1.0481271 1.4846036e-38
0.27091423 0.0053501911 1.0519177 1.7795218e-38
0.271887 0.0053501911 1.0519177 2.1852182e-38
0.27435356 0.0053794812 1.0576766 2.2865243e-38
0.27521622 0.005377226 1.0572331 2.2497543e-38
0.27619389 0.005377226 1.0572331 2.1945093e-38
0.27717158 0.005377226 1.0572331 2.2036926e-38
0.27814925 0.005377226 1.0572331 2.2128043e-38
0.27912694 0.005377226 1.0572331 2.1114247e-38
0.2808181 0.005390923 1.0599262 1.9546562e-38
0.28179827 0.005390923 1.0599262 1.7979594e-38
0.28277844 0.005390923 1.0599262 1.7517893e-38
0.28418866 0.0053990935 1.0615325 1.7242383e-38
0.28517029 0.0053990935 1.0615325 1.7703003e-38
0.2876693 0.0054277224 1.0671613 1.8163981e-38
0.28865615 0.0054277224 1.0671613 1.8809353e-38
0.28964302 0.0054277224 1.0671613 2.0377398e-38
0.29127809 0.0054398286 1.0695416 2.2036923e-38
0.29226717 0.0054398286 1.0695416 2.2590096e-38
0.29325622 0.0054398286 1.0695416 2.2866678e-38
0.29575565 0.0054677511 1.0750315 2.268229e-38
0.29674977 0.0054677511 1.0750315 2.2866678e-38
0.165188 0.0046898797 1.1270012 2.1297559e-38
0.1662302 0.0046898797 1.1270012 2.0926979e-38
0.16727239 0.0046898797 1.1270012 2.0464561e-38
0.16831459 0.0046898797 1.1270012 1.834334e-38
0.16659057 0.004613277 1.1085931 1.520761e-38
0.16761574 0.004613277 1.1085931 1.4008348e-38
0.16864091 0.004613277 1.1085931 1.5113619e-38
0.16966608 0.004613277 1.1085931 1.7695097e-38
0.16783437 0.0045360639 1.0900384 1.7786213e-38
0.16884239 0.0045360639 1.0900384 1.382288e-38
0.16985039 0.0045360639 1.0900384 1.3085315e-38
0.16905005 0.0044880542 1.0785015 1.3455543e-38
0.1700474 0.0044880542 1.0785015 1.5024313e-38
0.17104474 0.0044880542 1.0785015 1.401161e-38
0.17154217 0.0044750129 1.0753676 9.4029159e-39
0.17253661 0.0044750129 1.0753676 6.6384903e-39
0.17353107 0.0044750129 1.0753676 6.0864012e-39
0.17452551 0.0044750129 1.0753676 6.7321209e-39
0.17415567 0.0044402289 1.0670089 7.9310144e-39
0.17514238 0.0044402289 1.0670089 9.9600343e-39
0.1761291 0.0044402289 1.0670089 1.0513208e-38
0.17516743 0.0043913834 1.055271 9.8689177e-39
0.17614329 0.0043913834 1.055271 1.1159659e-38
0.17711915 0.0043913834 1.055271 1.5677964e-38
0.17660563 0.004354659 1.046446 2.0103354e-38
0.17757334 0.004354659 1.046446 2.1395158e-38
0.17854103 0.004354659 1.046446 2.1026022e-38
0.17905943 0.0043437593 1.0438267 2.0933828e-38
0.1800247 0.0043437593 1.0438267 2.1117858e-38
0.18098998 0.0043437593 1.0438267 2.1025305e-38
0.18195526 0.0043437593 1.0438267 2.1208617e-38
0.18229169 0.004328826 1.0402381 2.1208976e-38
0.18325365 0.004328826 1.0402381 2.111678e-38
0.18421561 0.004328826 1.0402381 2.1393364e-38
0.18451352 0.0043133027 1.0365078 2.1577753e-38
0.18547203 0.0043133027 1.0365078 2.0840198e-38
0.18643054 0.0043133027 1.0365078 2.1116423e-38
0.18701924 0.0043047904 1.0344623 2.1208976e-38
0.18797587 0.0043047904 1.0344623 2.1116423e-38
0.18893249 0.0043047904 1.0344623 2.130117e-38
0.18975998 0.0043018633 1.0337589 2.1208976e-38
0.19071595 0.0043018633 1.0337589 2.130117e-38
0.19167192 0.0043018633 1.0337589 2.1761783e-38
0.19258344 0.0043008705 1.0335203 2.1393364e-38
0.19353919 0.0043008705 1.0335203 2.1761783e-38
0.19449495 0.0043008705 1.0335203 2.1761783e-38
0.19503073 0.0042916299 1.0312997 2.1761783e-38
0.19598442 0.0042916299 1.0312997 2.194653e-38
0.19693811 0.0042916299 1.0312997 2.1761783e-38
0.19736186 0.0042801369 1.0285379 2.1761783e-38
0.198313 0.0042801369 1.0285379 2.1761065e-38
0.19926414 0.0042801369 1.0285379 2.1300453e-38
0.19984001 0.004272114 1.02661 2.1300453e-38
0.20078936 0.004272114 1.02661 2.1208258e-38
0.20173873 0.004272114 1.02661 2.1023511e-38
0.20229656 0.004263862 1.024627 2.1023511e-38
0.20324409 0.004263862 1.024627 2.0747286e-38
0.20419161 0.004263862 1.024627 2.0562535e-38
0.20493288 0.0042595747 1.0235968 2.0747286e-38
0.20587945 0.0042595747 1.0235968 2.0562535e-38
0.20682603 0.0042595747 1.0235968 2.065473e-38
0.20718251 0.0042474777 1.0206897 2.0932393e-38
0.2081264 0.0042474777 1.0206897 2.1300811e-38
0.20907028 0.0042474777 1.0206897 2.1577753e-38
0.20978671 0.0042428775 1.0195843 2.1485559e-38
0.21072958 0.0042428775 1.0195843 2.1208617e-38
0.21167244 0.0042428775 1.0195843 2.0932393e-38
0.21244062 0.0042393915 1.0187466 2.0748364e-38
0.21338271 0.0042393915 1.0187466 2.074944e-38
0.2143248 0.0042393915 1.0187466 2.0472498e-38
0.21526688 0.0042393915 1.0187466 2.0287751e-38
0.21620896 0.0042393915 1.0187466 2.0289904e-38
0.21734707 0.0042432183 1.0196662 2.0383891e-38
0.21829 0.0042432183 1.0196662 1.7617319e-38
0.21923295 0.0042432183 1.0196662 1.134694e-38
0.21938369 0.0042279512 1.0159974 9.688139e-39
0.22032323 0.0042279512 1.0159974 1.3561077e-38
0.22126277 0.0042279512 1.0159974 1.8907702e-38
0.22220232 0.0042279512 1.0159974 2.1119652e-38
0.22209708 0.004208155 1.0112404 2.0566845e-38
0.22303222 0.004208155 1.0112404 2.0474651e-38
0.22396737 0.004208155 1.0112404 2.0750157e-38
0.22490253 0.004208155 1.0112404 2.1670665e-38
0.22583766 0.004208155 1.0112404 2.2683366e-38
0.22663687 0.0042056325 1.0106342 2.3509886e-38
0.22757146 0.0042056325 1.0106342 2.3509886e-38
0.22850604 0.0042056325 1.0106342 2.3509886e-38
0.22944063 0.0042056325 1.0106342 2.3509886e-38
0.23037522 0.0042056325 1.0106342 2.1576677e-38
0.23156919 0.0042103487 1.0117675 1.982497e-38
0.23250481 0.0042103487 1.0117675 1.9363993e-38
0.23344046 0.0042103487 1.0117675 1.9087404e-38
0.23453413 0.0042131878 1.0124497 1.8902657e-38
0.23545268 0.0042128707 1.0123736 1.8627149e-38
0.23638888 0.0042128707 1.0123736 1.8350921e-38
0.23732506 0.0042128707 1.0123736 1.8166171e-38
0.23784651 0.0042055375 1.0106113 1.7981783e-38
0.23878106 0.0042055375 1.0106113 1.7705552e-38
0.23971564 0.0042055375 1.0106113 1.7611918e-38
0.24047183 0.0042024199 1.0098622 1.7244567e-38
0.2414057 0.0042024199 1.0098622 1.7060533e-38
0.24233957 0.0042024199 1.0098622 1.7612272e-38
0.24325991 0.0042021866 1.009806 1.7703395e-38
0.24419373 0.0042021866 1.009806 1.7796313e-38
0.24512754 0.0042021866 1.009806 1.8258372e-38
0.24606137 0.0042021866 1.009806 1.881226e-38
0.24699518 0.0042021866 1.009806 1.8904808e-38
0.24863461 0.0042141457 1.0126799 1.8536749e-38
0.24957108 0.0042141457 1.0126799 1.8536752e-38
0.25050756 0.0042141457 1.0126799 1.7340373e-38
0.25310785 0.0042420304 1.0193808 1.4575949e-38
0.25405052 0.0042420304 1.0193808 1.5219873e-38
0.26030937 0.0043304698 1.0406332 2.0565051e-38
0.26127172 0.0043304698 1.0406332 2.3509886e-38
0.26382992 0.0043568243 1.0469663 2.3509886e-38
0.26479813 0.0043568243 1.0469663 2.3509886e-38
0.26576629 0.0043568243 1.0469663 2.3509886e-38
0.26703021 0.0043616546 1.0481271 2.3509886e-38
0.26799947 0.0043616546 1.0481271 1.6782868e-38
0.26896873 0.0043616546 1.0481271 1.4846036e-38
0.27091423 0.0043774289 1.0519177 1.6965816e-38
0.271887 0.0043774289 1.0519177 2.1574516e-38
0.27435356 0.0044013937 1.0576766 2.2772332e-38
0.27521622 0.0043995483 1.0572331 2.203657e-38
0.27619389 0.0043995483 1.0572331 2.1668867e-38
0.27717158 0.0043995483 1.0572331 2.1759981e-38
0.27814925 0.0043995483 1.0572331 2.157415e-38
0.27912694 0.0043995483 1.0572331 2.0744387e-38
0.2808181 0.0044107554 1.0599262 1.9453648e-38
0.28179827 0.0044107554 1.0599262 1.8070709e-38
0.28277844 0.0044107554 1.0599262 1.7425696e-38
0.28418866 0.0044174399 1.0615325 1.7610088e-38
0.28517029 0.0044174399 1.0615325 1.779448e-38
0.2876693 0.0044408636 1.0671613 1.8163981e-38
0.28865615 0.0044408636 1.0671613 1.8809353e-38
0.28964302 0.0044408636 1.0671613 2.0377398e-38
0.29127809 0.0044507687 1.0695416 2.2221673e-38
0.29226717 0.0044507687 1.0695416 2.2497901e-38
0.29325622 0.0044507687 1.0695416 2.268229e-38
0.29575565 0.0044736145 1.0750315 2.2590096e-38
0.29674977 0.0044736145 1.0750315 2.2774484e-38
0.16600178 0.0036656545 1.1325532 2.1297559e-38
0.16704911 0.0036656545 1.1325532 2.1203926e-38
0.16809644 0.0036656545 1.1325532 2.0649673e-38
0.16914377 0.0036656545 1.1325532 1.8251508e-38
0.16766745 0.003611299 1.1157594 1.5116137e-38
0.16869925 0.003611299 1.1157594 1.483883e-38
0.16973105 0.003611299 1.1157594 1.6866055e-38
0.16820797 0.0035572683 1.0990659 1.9171303e-38
0.16922434 0.0035572683 1.0990659 1.8709246e-38
0.1702407 0.0035572683 1.0990659 1.4745913e-38
0.17125706 0.0035572683 1.0990659 1.2994192e-38
0.17063585 0.0035234541 1.0886185 1.3641004e-38
0.17164256 0.0035234541 1.0886185 1.5854424e-38
0.17264925 0.0035234541 1.0886185 1.5671477e-38
0.17293432 0.0035088123 1.0840948 1.3368031e-38
0.17393684 0.0035088123 1.0840948 9.1277555e-39
0.17493936 0.0035088123 1.0840948 8.7596961e-39
0.17428915 0.0034758518 1.0739112 1.0972744e-38
0.17528225 0.0034758518 1.0739112 1.1895777e-38
0.17627536 0.0034758518 1.0739112 1.309432e-38
0.17726845 0.0034758518 1.0739112 1.2726256e-38
0.1757905 0.0034276699 1.0590247 1.2080887e-38
0.17676984 0.0034276699 1.0590247 1.2726978e-38
0.17774917 0.0034276699 1.0590247 1.6875783e-38
0.17705025 0.0033954841 1.0490805 2.0287743e-38
0.17802039 0.0033954841 1.0490805 2.1578829e-38
0.17899053 0.0033954841 1.0490805 2.1117858e-38
0.17944655 0.0033857839 1.0460835 2.0933468e-38
0.18041392 0.0033857839 1.0460835 2.1025664e-38
0.18138129 0.0033857839 1.0460835 2.130117e-38
0.18183112 0.0033761747 1.0431145 2.130117e-38
0.18279575 0.0033761747 1.0431145 2.1208976e-38
0.18376036 0.0033761747 1.0431145 2.1208254e-38
0.18417342 0.0033660938 1.04 2.1392647e-38
0.18513517 0.0033660938 1.04 2.1300453e-38
0.18609691 0.0033660938 1.04 2.1208976e-38
0.18705866 0.0033660938 1.04 2.1393364e-38
0.18760256 0.0033586137 1.0376889 2.1208976e-38
0.18856217 0.0033586137 1.0376889 2.0932393e-38
0.18943183 0.0033570197 1.0371964 2.1116423e-38
0.19039099 0.0033570197 1.0371964 2.1116423e-38
0.19135013 0.0033570197 1.0371964 2.1393364e-38
0.19219951 0.0033551038 1.0366044 2.1116423e-38
0.19315812 0.0033551038 1.0366044 2.1577753e-38
0.19411673 0.0033551038 1.0366044 2.1761783e-38
0.19484587 0.0033511573 1.0353851 2.1578112e-38
0.19580333 0.0033511573 1.0353851 2.1578112e-38
0.1967608 0.0033511573 1.0353851 2.1393364e-38
0.19718525 0.003342123 1.0325938 2.1854336e-38
0.19814014 0.003342123 1.0325938 2.1853618e-38
0.19909504 0.003342123 1.0325938 2.1300453e-38
0.1996557 0.0033355367 1.0305589 2.1392647e-38
0.2006087 0.0033355367 1.0305589 2.1392647e-38
0.20156172 0.0033355367 1.0305589 2.1208258e-38
0.20217121 0.0033298789 1.0288109 2.1208258e-38
0.2031226 0.0033298789 1.0288109 2.102351e-38
0.204074 0.0033298789 1.0288109 2.0931314e-38
0.20492481 0.0033282454 1.0283061 2.0655086e-38
0.20587574 0.0033282454 1.0283061 2.0747283e-38
0.20682666 0.0033282454 1.0283061 2.0931314e-38
0.20748267 0.003323521 1.0268465 2.1115706e-38
0.20843224 0.003323521 1.0268465 2.1392647e-38
0.20938182 0.003323521 1.0268465 2.1761065e-38
0.20991598 0.0033169568 1.0248184 2.1668871e-38
0.21086368 0.0033169568 1.0248184 2.1300453e-38
0.21181138 0.0033169568 1.0248184 2.1116423e-38
0.21259758 0.003314439 1.0240405 2.0748002e-38
0.21354455 0.003314439 1.0240405 2.0748722e-38
0.21449153 0.003314439 1.0240405 2.0471781e-38
0.21543851 0.003314439 1.0240405 2.0748364e-38
0.2163855 0.003314439 1.0240405 2.1485917e-38
0.21831174 0.003329373 1.0286546 2.1948323e-38
0.21768007 0.0033053374 1.0212284 2.1027457e-38
0.21862446 0.0033053374 1.0212284 1.6880473e-38
0.21956883 0.0033053374 1.0212284 1.0059438e-38
0.21927795 0.0032868215 1.0155077 8.586106e-39
0.22021703 0.0032868215 1.0155077 1.1168664e-38
0.22115612 0.0032868215 1.0155077 1.7896067e-38
0.22209522 0.0032868215 1.0155077 2.0659398e-38
0.22250269 0.003278987 1.0130872 1.9921844e-38
0.22343954 0.003278987 1.0130872 2.0474651e-38
0.2243764 0.003278987 1.0130872 2.0657963e-38
0.22531325 0.003278987 1.0130872 2.1302605e-38
0.2262501 0.003278987 1.0130872 2.240786e-38
0.22740895 0.003282191 1.0140771 2.3509886e-38
0.22834672 0.003282191 1.0140771 2.3509886e-38
0.22957294 0.0032863203 1.0153528 2.3509886e-38
0.23043901 0.0032852811 1.0150318 2.3509886e-38
0.23137766 0.0032852811 1.0150318 2.1300094e-38
0.23231632 0.0032852811 1.0150318 1.9640578e-38
0.23324534 0.0032851459 1.01499 1.91796e-38
0.23418397 0.0032851459 1.01499 1.8718623e-38
0.23512258 0.0032851459 1.01499 1.8534234e-38
0.2358849 0.0032826927 1.014232 1.8166171e-38
0.23682283 0.0032826927 1.014232 1.798178e-38
0.23776074 0.0032826927 1.014232 1.7889583e-38
0.23836389 0.0032780888 1.0128096 1.7705196e-38
0.23930047 0.0032780888 1.0128096 1.7796668e-38
0.24023707 0.0032780888 1.0128096 1.7612274e-38
0.24096285 0.0032752233 1.0119243 1.7336043e-38
0.24189863 0.0032752233 1.0119243 1.7151293e-38
0.2428344 0.0032752233 1.0119243 1.7243848e-38
0.24377018 0.0032752233 1.0119243 1.7426804e-38
0.24470596 0.0032752233 1.0119243 1.733569e-38
0.24572782 0.0032763712 1.0122789 1.7889227e-38
0.24666394 0.0032763712 1.0122789 1.8443837e-38
0.24760005 0.0032763712 1.0122789 1.853603e-38
0.24898167 0.0032822443 1.0140935 1.8168325e-38
0.24991946 0.0032822443 1.0140935 1.8075773e-38
0.25085723 0.0032822443 1.0140935 1.6787556e-38
0.25345314 0.0033038585 1.0207715 1.3655425e-38
0.25439709 0.0033038585 1.0207715 1.411568e-38
0.2594763 0.0033573643 1.0373029 1.9185721e-38
0.26043555 0.0033573643 1.0373029 2.3509886e-38
0.26438892 0.003395821 1.0491846 2.3509886e-38
0.26535916 0.003395821 1.0491846 2.3509886e-38
0.26632938 0.003395821 1.0491846 2.3509886e-38
0.26803735 0.0034051929 1.0520802 2.3509886e-38
0.26901025 0.0034051929 1.0520802 1.7151649e-38
0.27069375 0.0034141552 1.0548491 1.4201391e-38
0.27166921 0.0034141552 1.0548491 1.5214819e-38
0.2726447 0.0034141552 1.0548491 2.0100465e-38
0.27429768 0.0034226093 1.0574611 2.1943659e-38
0.27527559 0.0034226093 1.0574611 2.1575951e-38
0.27625346 0.0034226093 1.0574611 2.1115693e-38
0.27731177 0.0034236021 1.0577679 2.1114611e-38
0.27828994 0.0034236021 1.0577679 2.0928778e-38
0.27926812 0.0034236021 1.0577679 2.0191213e-38
0.28118122 0.0034350236 1.0612967 1.9085224e-38
0.28216267 0.0034350236 1.0612967 1.7978514e-38
0.28314409 0.0034350236 1.0612967 1.7517893e-38
0.28477842 0.003442917 1.0637355 1.7518612e-38
0.2857621 0.003442917 1.0637355 1.7795198e-38
0.28820372 0.0034604219 1.0691439 1.797995e-38
0.28919241 0.0034604219 1.0691439 1.8440571e-38
0.2901811 0.0034604219 1.0691439 1.9824225e-38
0.2915751 0.0034652392 1.0706322 2.148375e-38
0.2925652 0.0034652392 1.0706322 2.1944728e-38
0.29355526 0.0034652392 1.0706322 2.2129122e-38
0.29595277 0.0034817972 1.0757481 2.2405349e-38
0.29694757 0.0034817972 1.0757481 2.2129122e-38
0.16600178 0.0026183245 1.1325532 2.1389036e-38
0.16704911 0.0026183245 1.1325532 2.1480152e-38
0.16809644 0.0026183245 1.1325532 2.1110294e-38
0.16914377 0.0026183245 1.1325532 1.8528097e-38
0.16766745 0.0025794993 1.1157594 1.6129932e-38
0.16869925 0.0025794993 1.1157594 1.6222483e-38
0.16973105 0.0025794993 1.1157594 1.7604699e-38
0.16820797 0.002540906 1.0990659 1.8618848e-38
0.16922434 0.002540906 1.0990659 1.7603617e-38
0.1702407 0.002540906 1.0990659 1.4286009e-38
0.17125706 0.002540906 1.0990659 1.2995268e-38
0.17063585 0.0025167528 1.0886185 1.354916e-38
0.17164256 0.0025167528 1.0886185 1.5025014e-38
0.17264925 0.0025167528 1.0886185 1.5948772e-38
0.17293432 0.0025062945 1.0840948 1.4843146e-38
0.17393684 0.0025062945 1.0840948 1.4290695e-38
0.17493936 0.0025062945 1.0840948 1.4382894e-38
0.17428915 0.0024827514 1.0739112 1.4568001e-38
0.17528225 0.0024827514 1.0739112 1.4568721e-38
0.17627536 0.0024827514 1.0739112 1.4293212e-38
0.17726845 0.0024827514 1.0739112 1.3094673e-38
0.1757905 0.0024483355 1.0590247 1.2634414e-38
0.17676984 0.0024483355 1.0590247 1.4109547e-38
0.17774917 0.0024483355 1.0590247 1.8351269e-38
0.17705025 0.0024253458 1.0490805 2.0747999e-38
0.17802039 0.0024253458 1.0490805 2.0840554e-38
0.17899053 0.0024253458 1.0490805 2.130117e-38
0.17944655 0.002418417 1.0460835 2.1208976e-38
0.18041392 0.002418417 1.0460835 2.111678e-38
0.18138129 0.002418417 1.0460835 2.1208976e-38
0.18183112 0.0024115532 1.0431145 2.1116061e-38
0.18279575 0.0024115532 1.0431145 2.0931667e-38
0.18376036 0.0024115532 1.0431145 2.1023144e-38
0.18417342 0.0024043527 1.04 2.1023147e-38
0.18513517 0.0024043527 1.04 2.1115345e-38
0.18609691 0.0024043527 1.04 2.1208258e-38
0.18705866 0.0024043527 1.04 2.1300453e-38
0.18760256 0.0023990097 1.0376889 2.1115706e-38
0.18856217 0.0023990097 1.0376889 2.1115706e-38
0.18943183 0.0023978711 1.0371964 2.1115706e-38
0.19039099 0.0023978711 1.0371964 2.102351e-38
0.19135013 0.0023978711 1.0371964 2.1208258e-38
0.19219951 0.0023965025 1.0366044 2.1300453e-38
0.19315812 0.0023965025 1.0366044 2.102351e-38
0.19411673 0.0023965025 1.0366044 2.1300453e-38
0.19484587 0.0023936839 1.0353851 2.1577035e-38
0.19580333 0.0023936839 1.0353851 2.1300453e-38
0.1967608 0.0023936839 1.0353851 2.1392647e-38
0.19718525 0.0023872308 1.0325938 2.1761424e-38
0.19814014 0.0023872308 1.0325938 2.2038007e-38
0.19909504 0.0023872308 1.0325938 2.2313872e-38
0.1996557 0.0023825262 1.0305589 2.2313872e-38
0.2006087 0.0023825262 1.0305589 2.1668512e-38
0.20156172 0.0023825262 1.0305589 2.1944736e-38
0.20217121 0.0023784849 1.0288109 2.203693e-38
0.2031226 0.0023784849 1.0288109 2.1668153e-38
0.204074 0.0023784849 1.0288109 2.1483765e-38
0.20492481 0.002377318 1.0283061 2.1115345e-38
0.20587574 0.002377318 1.0283061 2.1575959e-38
0.20682666 0.002377318 1.0283061 2.203693e-38
0.20748267 0.0023739436 1.0268465 2.1760348e-38
0.20843224 0.0023739436 1.0268465 2.2313513e-38
0.20938182 0.0023739436 1.0268465 2.2866678e-38
0.20991598 0.0023692548 1.0248184 2.2405707e-38
0.21086368 0.0023692548 1.0248184 2.1944736e-38
0.21181138 0.0023692548 1.0248184 2.1392647e-38
0.21259758 0.0023674562 1.0240405 2.1300453e-38
0.21354455 0.0023674562 1.0240405 2.0563253e-38
0.21449153 0.0023674562 1.0240405 2.0562899e-38
0.21543851 0.0023674562 1.0240405 2.083984e-38
0.2163855 0.0023674562 1.0240405 2.1208258e-38
0.21831174 0.0023781236 1.0286546 2.0840558e-38
0.21768007 0.0023609551 1.0212284 2.0287392e-38
0.21862446 0.0023609551 1.0212284 1.3746542e-38
0.21956883 0.0023609551 1.0212284 9.417666e-39
0.21927795 0.0023477296 1.0155077 7.6677469e-39
0.22021703 0.0023477296 1.0155077 9.9733579e-39
0.22115612 0.0023477296 1.0155077 1.6146149e-38
0.22209522 0.0023477296 1.0155077 2.0382456e-38
0.22250269 0.0023421335 1.0130872 2.0014038e-38
0.22343954 0.0023421335 1.0130872 2.0474651e-38
0.2243764 0.0023421335 1.0130872 2.0381739e-38
0.22531325 0.0023421335 1.0130872 2.1026022e-38
0.2262501 0.0023421335 1.0130872 2.2591531e-38
0.22740895 0.002344422 1.0140771 2.3509886e-38
0.22834672 0.002344422 1.0140771 2.3509886e-38
0.22957294 0.0023473715 1.0153528 2.3509886e-38
0.23043901 0.0023466293 1.0150318 2.3509886e-38
0.23137766 0.0023466293 1.0150318 2.12079e-38
0.23231632 0.0023466293 1.0150318 1.8995209e-38
0.23324534 0.0023465327 1.01499 1.8903013e-38
0.23418397 0.0023465327 1.01499 1.8534231e-38
0.23512258 0.0023465327 1.01499 1.8257288e-38
0.2358849 0.0023447804 1.014232 1.798106e-38
0.23682283 0.0023447804 1.014232 1.7796668e-38
0.23776074 0.0023447804 1.014232 1.7704114e-38
0.23836389 0.0023414919 1.0128096 1.7611921e-38
0.23930047 0.0023414919 1.0128096 1.7427887e-38
0.24023707 0.0023414919 1.0128096 1.7519359e-38
0.24096285 0.0023394451 1.0119243 1.7426804e-38
0.24189863 0.0023394451 1.0119243 1.7150577e-38
0.2428344 0.0023394451 1.0119243 1.7150577e-38
0.24377018 0.0023394451 1.0119243 1.7241694e-38
0.24470596 0.0023394451 1.0119243 1.7059101e-38
0.24572782 0.0023402651 1.0122789 1.7520802e-38
0.24666394 0.0023402651 1.0122789 1.816689e-38
0.24760005 0.0023402651 1.0122789 1.8259086e-38
0.24898167 0.0023444602 1.0140935 1.8167969e-38
0.24991946 0.0023444602 1.0140935 1.835236e-38
0.25085723 0.0023444602 1.0140935 1.6787553e-38
0.25345314 0.0023598988 1.0207715 1.4116399e-38
0.25439709 0.0023598988 1.0207715 1.3840891e-38
0.2594763 0.0023981172 1.0373029 1.7898219e-38
0.26043555 0.0023981172 1.0373029 2.2775202e-38
0.26438892 0.0024255863 1.0491846 2.3509886e-38
0.26535916 0.0024255863 1.0491846 2.3509886e-38
0.26632938 0.0024255863 1.0491846 2.3509886e-38
0.26803735 0.0024322807 1.0520802 2.3509886e-38
0.26901025 0.0024322807 1.0520802 1.7889217e-38
0.27069375 0.0024386821 1.0548491 1.4754563e-38
0.27166921 0.0024386821 1.0548491 1.5122627e-38
0.2726447 0.0024386821 1.0548491 1.9179232e-38
0.27429768 0.0024447208 1.0574611 2.1022061e-38
0.27527559 0.0024447208 1.0574611 2.1114614e-38
0.27625346 0.0024447208 1.0574611 2.0838386e-38
0.27731177 0.00244543 1.0577679 2.0837304e-38
0.27828994 0.00244543 1.0577679 2.0559994e-38
0.27926812 0.00244543 1.0577679 1.9914625e-38
0.28118122 0.0024535882 1.0612967 1.899267e-38
0.28216267 0.0024535882 1.0612967 1.8070709e-38
0.28314409 0.0024535882 1.0612967 1.742534e-38
0.28477842 0.0024592264 1.0637355 1.7334225e-38
0.2857621 0.0024592264 1.0637355 1.761081e-38
0.28820372 0.0024717299 1.0691439 1.7795201e-38
0.28919241 0.0024717299 1.0691439 1.8163984e-38
0.2901811 0.0024717299 1.0691439 1.9086659e-38
0.2915751 0.0024751707 1.0706322 2.0653989e-38
0.2925652 0.0024751707 1.0706322 2.1391554e-38
0.29355526 0.0024751707 1.0706322 2.1944731e-38
0.29595277 0.002486998 1.0757481 2.1852176e-38
0.29694757 0.002486998 1.0757481 2.1759981e-38
0.16600178 0.0015709947 1.1325532 2.1389036e-38
0.16704911 0.0015709947 1.1325532 2.1480152e-38
0.16809644 0.0015709947 1.1325532 2.092626e-38
0.16914377 0.0015709947 1.1325532 1.8621369e-38
0.16766745 0.0015476996 1.1157594 1.6960772e-38
0.16869925 0.0015476996 1.1157594 1.714516e-38
0.16973105 0.0015476996 1.1157594 1.7513222e-38
0.16820797 0.0015245436 1.0990659 1.6960406e-38
0.16922434 0.0015245436 1.0990659 1.5852979e-38
0.1702407 0.0015245436 1.0990659 1.3825752e-38
0.17125706 0.0015245436 1.0990659 1.2627208e-38
0.17063585 0.0015100518 1.0886185 1.2904874e-38
0.17164256 0.0015100518 1.0886185 1.4288528e-38
0.17264925 0.0015100518 1.0886185 1.5948772e-38
0.17293432 0.0015037768 1.0840948 1.5488513e-38
0.17393684 0.0015037768 1.0840948 1.5488515e-38
0.17493936 0.0015037768 1.0840948 1.5488518e-38
0.17428915 0.0014896508 1.0739112 1.5304487e-38
0.17528225 0.0014896508 1.0739112 1.5028979e-38
0.17627536 0.0014896508 1.0739112 1.4476524e-38
0.17726845 0.0014896508 1.0739112 1.3831158e-38
0.1757905 0.0014690014 1.0590247 1.3647845e-38
0.17676984 0.0014690014 1.0590247 1.5676151e-38
0.17774917 0.0014690014 1.0590247 2.0010064e-38
0.17705025 0.0014552075 1.0490805 2.2038365e-38
0.17802039 0.0014552075 1.0490805 2.2222395e-38
0.17899053 0.0014552075 1.0490805 2.1393006e-38
0.17944655 0.0014510502 1.0460835 2.1393006e-38
0.18041392 0.0014510502 1.0460835 2.1208254e-38
0.18138129 0.0014510502 1.0460835 2.1208254e-38
0.18183112 0.001446932 1.0431145 2.1299371e-38
0.18279575 0.001446932 1.0431145 2.1023144e-38
0.18376036 0.001446932 1.0431145 2.111534e-38
0.18417342 0.0014426117 1.04 2.1023144e-38
0.18513517 0.0014426117 1.04 2.1944736e-38
0.18609691 0.0014426117 1.04 2.203693e-38
0.18705866 0.0014426117 1.04 2.1761424e-38
0.18760256 0.0014394058 1.0376889 2.1761424e-38
0.18856217 0.0014394058 1.0376889 2.1853618e-38
0.18943183 0.0014387227 1.0371964 2.1853618e-38
0.19039099 0.0014387227 1.0371964 2.1945812e-38
0.19135013 0.0014387227 1.0371964 2.2038007e-38
0.19219951 0.0014379015 1.0366044 2.2038007e-38
0.19315812 0.0014379015 1.0366044 2.1761424e-38
0.19411673 0.0014379015 1.0366044 2.1300453e-38
0.19484587 0.0014362102 1.0353851 2.1208257e-38
0.19580333 0.0014362102 1.0353851 2.0469973e-38
0.1967608 0.0014362102 1.0353851 2.0377775e-38
0.19718525 0.0014323384 1.0325938 2.0654002e-38
0.19814014 0.0014323384 1.0325938 2.0746556e-38
0.19909504 0.0014323384 1.0325938 2.0377775e-38
0.1996557 0.0014295158 1.0305589 2.0285579e-38
0.2006087 0.0014295158 1.0305589 2.0654002e-38
0.20156172 0.0014295158 1.0305589 2.0838752e-38
0.20217121 0.001427091 1.0288109 2.0838396e-38
0.2031226 0.001427091 1.0288109 2.0654004e-38
0.204074 0.001427091 1.0288109 1.9270351e-38
0.20492481 0.0014263908 1.0283061 1.9270351e-38
0.20587574 0.0014263908 1.0283061 1.9270351e-38
0.20682666 0.0014263908 1.0283061 1.9823525e-38
0.20748267 0.0014243661 1.0268465 2.056109e-38
0.20843224 0.0014243661 1.0268465 2.0192307e-38
0.20938182 0.0014243661 1.0268465 2.0100112e-38
0.20991598 0.001421553 1.0248184 1.9546938e-38
0.21086368 0.001421553 1.0248184 1.8164003e-38
0.21181138 0.001421553 1.0248184 1.7704104e-38
0.21259758 0.0014204738 1.0240405 1.7519356e-38
0.21354455 0.0014204738 1.0240405 1.6966186e-38
0.21449153 0.0014204738 1.0240405 1.650593e-38
0.21543851 0.0014204738 1.0240405 1.6137867e-38
0.2163855 0.0014204738 1.0240405 1.6045675e-38
0.21831174 0.0014268742 1.0286546 1.5954558e-38
0.21768007 0.0014165732 1.0212284 1.4664538e-38
0.21862446 0.0014165732 1.0212284 1.1900827e-38
0.21956883 0.0014165732 1.0212284 9.691013e-39
0.21927795 0.0014086377 1.0155077 8.402791e-39
0.22021703 0.0014086377 1.0155077 9.6960507e-39
0.22115612 0.0014086377 1.0155077 1.6146149e-38
0.22209522 0.0014086377 1.0155077 2.0014756e-38
0.22250269 0.0014052802 1.0130872 1.9553426e-38
0.22343954 0.0014052802 1.0130872 2.0196992e-38
0.2243764 0.0014052802 1.0130872 2.0381739e-38
0.22531325 0.0014052802 1.0130872 2.074944e-38
0.2262501 0.0014052802 1.0130872 2.2499695e-38
0.22740895 0.0014066533 1.0140771 2.3509886e-38
0.22834672 0.0014066533 1.0140771 2.3509886e-38
0.22957294 0.0014084229 1.0153528 2.3509886e-38
0.23043901 0.0014079777 1.0150318 2.3509886e-38
0.23137766 0.0014079777 1.0150318 2.1300811e-38
0.23231632 0.0014079777 1.0150318 1.853495e-38
0.23324534 0.0014079196 1.01499 1.8626426e-38
0.23418397 0.0014079196 1.01499 1.8349839e-38
0.23512258 0.0014079196 1.01499 1.8073257e-38
0.2358849 0.0014068682 1.014232 1.7796668e-38
0.23682283 0.0014068682 1.014232 1.7611918e-38
0.23776074 0.0014068682 1.014232 1.7427887e-38
0.23836389 0.0014048952 1.0128096 1.742789e-38
0.23930047 0.0014048952 1.0128096 1.733569e-38
0.24023707 0.0014048952 1.0128096 1.7151296e-38
0.24096285 0.0014036671 1.0119243 1.6966905e-38
0.24189863 0.0014036671 1.0119243 1.6782874e-38
0.2428344 0.0014036671 1.0119243 1.6966186e-38
0.24377018 0.0014036671 1.0119243 1.6966186e-38
0.24470596 0.0014036671 1.0119243 1.6782874e-38
0.24572782 0.001404159 1.0122789 1.7244211e-38
0.24666394 0.001404159 1.0122789 1.798178e-38
0.24760005 0.001404159 1.0122789 1.8350921e-38
0.24898167 0.0014066761 1.0140935 1.835164e-38
0.24991946 0.0014066761 1.0140935 1.8074694e-38
0.25085723 0.0014066761 1.0140935 1.7063419e-38
0.25345314 0.0014159393 1.0207715 1.4483741e-38
0.25439709 0.0014159393 1.0207715 1.4023482e-38
0.2594763 0.0014388704 1.0373029 1.6513483e-38
0.26043555 0.0014388704 1.0373029 2.0751951e-38
0.26438892 0.0014553518 1.0491846 2.3509886e-38
0.26535916 0.0014553518 1.0491846 2.3509886e-38
0.26632938 0.0014553518 1.0491846 2.3509886e-38
0.26803735 0.0014593684 1.0520802 2.3509886e-38
0.26901025 0.0014593684 1.0520802 1.8718979e-38
0.27069375 0.0014632094 1.0548491 1.5399932e-38
0.27166921 0.0014632094 1.0548491 1.6137499e-38
0.2726447 0.0014632094 1.0548491 1.9363621e-38
0.27401999 0.0014653476 1.0563906 2.0469247e-38
0.27499691 0.0014653476 1.0563906 2.0838386e-38
0.2759738 0.0014653476 1.0563906 2.0838386e-38
0.27705085 0.0014658774 1.0567726 2.0653273e-38
0.27802807 0.0014658774 1.0567726 2.0191932e-38
0.27900535 0.0014658774 1.0567726 1.9546562e-38
0.28062981 0.0014692661 1.0592155 1.8900474e-38
0.28160936 0.0014692661 1.0592155 1.8162909e-38
0.28258884 0.0014692661 1.0592155 1.7333144e-38
0.28433478 0.0014732372 1.0620784 1.7057636e-38
0.28531694 0.0014732372 1.0620784 1.7242028e-38
0.28733307 0.0014785577 1.065914 1.7518614e-38
0.28831875 0.0014785577 1.065914 1.7795201e-38
0.28930449 0.0014785577 1.065914 1.8625682e-38
0.29125556 0.0014834749 1.0694588 2.0100815e-38
0.29224455 0.0014834749 1.0694588 2.102277e-38
0.29323351 0.0014834749 1.0694588 2.1299361e-38
0.2954374 0.0014896002 1.0738747 2.1852532e-38
0.29643044 0.0014896002 1.0738747 2.1299358e-38
0.29742351 0.0014896002 1.0738747 2.1114967e-38
0.16511165 0.00052085693 1.1264802 2.1296843e-38
0.16615336 0.00052085693 1.1264802 2.1203926e-38
0.16719507 0.00052085693 1.1264802 2.0741869e-38
0.16823679 0.00052085693 1.1264802 1.8529172e-38
0.1668707 0.00051344832 1.1104573 1.7238077e-38
0.1678976 0.00051344832 1.1104573 1.733063e-38
0.1689245 0.00051344832 1.1104573 1.732991e-38
0.16793993 0.00050737138 1.0973145 1.6500146e-38
0.16895467 0.00050737138 1.0973145 1.539272e-38
0.16996942 0.00050737138 1.0973145 1.3918669e-38
0.17098416 0.00050737138 1.0973145 1.2259149e-38
0.17085356 0.00050399278 1.0900074 1.2905237e-38
0.17186154 0.00050399278 1.0900074 1.4195976e-38
0.17286953 0.00050399278 1.0900074 1.5211207e-38
0.17291407 0.00050120021 1.0839678 1.5948772e-38
0.17391647 0.00050120021 1.0839678 1.6132806e-38
0.17491888 0.00050120021 1.0839678 1.6132809e-38
0.17440635 0.00049688417 1.0746334 1.5764746e-38
0.17540012 0.00049688417 1.0746334 1.5120459e-38
0.1763939 0.00049688417 1.0746334 1.4568004e-38
0.17738765 0.00049688417 1.0746334 1.4475808e-38
0.1761975 0.00049080083 1.0614766 1.4753115e-38
0.1771791 0.00049080083 1.0614766 1.6597028e-38
0.1781607 0.00049080083 1.0614766 1.982531e-38
0.17778486 0.00048708179 1.0534333 2.1576668e-38
0.17875902 0.00048708179 1.0534333 2.2129842e-38
0.17973319 0.00048708179 1.0534333 2.1945095e-38
0.18046372 0.00048642512 1.052013 2.2129483e-38
0.18143657 0.00048642512 1.052013 2.1945095e-38
0.18240942 0.00048642512 1.052013 2.1576315e-38
0.18329985 0.0004862065 1.0515403 2.1391204e-38
0.18427227 0.0004862065 1.0515403 2.1022061e-38
0.18524468 0.0004862065 1.0515403 2.1114261e-38
0.18581416 0.00048515445 1.0492649 2.1022064e-38
0.18678446 0.00048515445 1.0492649 2.0837677e-38
0.18775478 0.00048515445 1.0492649 2.0838396e-38
0.1877293 0.00048259459 1.0437286 2.0838396e-38
0.18869449 0.00048259459 1.0437286 2.0469973e-38
0.18965967 0.00048259459 1.0437286 1.954766e-38
0.19062486 0.00048259459 1.0437286 1.8810095e-38
0.19022296 0.00047915106 1.0362811 1.8717899e-38
0.19118127 0.00047915106 1.0362811 1.8349118e-38
0.19213958 0.00047915106 1.0362811 1.7611553e-38
0.19204737 0.00047654434 1.0306435 1.7150931e-38
0.19300047 0.00047654434 1.0306435 1.632117e-38
0.19395354 0.00047654434 1.0306435 1.5767996e-38
0.19478017 0.00047623517 1.0299748 1.632045e-38
0.19573265 0.00047623517 1.0299748 1.7242044e-38
0.19668512 0.00047623517 1.0299748 1.7979609e-38
0.19763759 0.00047623517 1.0299748 1.8532783e-38
0.19859006 0.00047623517 1.0299748 1.6965816e-38
0.20008205 0.00047752282 1.0327597 1.4568371e-38
0.20103709 0.00047752282 1.0327597 1.3001404e-38
0.20263141 0.00047903409 1.0360281 1.2817013e-38
0.20353736 0.00047891145 1.0357629 1.2909208e-38
0.20449518 0.00047891145 1.0357629 1.2909208e-38
0.20545299 0.00047891145 1.0357629 1.253935e-38
0.20590582 0.00047773978 1.0332289 1.23546e-38
0.20686132 0.00047773978 1.0332289 1.1617035e-38
0.20781679 0.00047773978 1.0332289 1.2078373e-38
0.20836583 0.00047680968 1.0312173 1.253935e-38
0.20931944 0.00047680968 1.0312173 1.253935e-38
0.21027306 0.00047680968 1.0312173 1.1986176e-38
0.21059348 0.00047538034 1.028126 1.1433004e-38
0.21154423 0.00047538034 1.028126 1.1156415e-38
0.212495 0.00047538034 1.028126 1.0603242e-38
0.21298306 0.00047434983 1.0258973 1.0418494e-38
0.21393175 0.00047434983 1.0258973 9.497617e-39
0.21488045 0.00047434983 1.0258973 9.4050655e-39
0.21582915 0.00047434983 1.0258973 9.4068661e-39
0.21677786 0.00047434983 1.0258973 8.8544154e-39
0.21853837 0.0004761185 1.0297225 9.2239168e-39
0.21766788 0.0004721646 1.0211712 9.5937783e-39
0.21861221 0.0004721646 1.0211712 9.6866942e-39
0.21955653 0.0004721646 1.0211712 9.8710855e-39
0.21941561 0.00046984071 1.0161452 8.3080786e-39
0.22035529 0.00046984071 1.0161452 9.2339936e-39
0.22129497 0.00046984071 1.0161452 1.4671016e-38
0.22223465 0.00046984071 1.0161452 1.9923638e-38
0.22317433 0.00046984071 1.0161452 2.0382815e-38
0.22470951 0.00046912217 1.0145912 2.0011885e-38
0.22564776 0.00046912217 1.0145912 2.0472857e-38
0.226586 0.00046912217 1.0145912 2.1578829e-38
0.22752012 0.0004691137 1.0145729 2.3509886e-38
0.22845836 0.0004691137 1.0145729 2.3509886e-38
0.22939658 0.0004691137 1.0145729 2.3509886e-38
0.22996283 0.00046835607 1.0129343 2.3509886e-38
0.23089953 0.00046835607 1.0129343 2.1393364e-38
0.23183624 0.00046835607 1.0129343 1.8627147e-38
0.23277296 0.00046835607 1.0129343 1.8442035e-38
0.23370966 0.00046835607 1.0129343 1.8073613e-38
0.23473953 0.00046854198 1.0133364 1.7796668e-38
0.23540092 0.00046799387 1.012151 1.7427887e-38
0.2363369 0.00046799387 1.012151 1.733569e-38
0.23727289 0.00046799387 1.012151 1.733569e-38
0.23797894 0.00046754212 1.011174 1.742789e-38
0.23891401 0.00046754212 1.011174 1.733569e-38
0.23984911 0.00046754212 1.011174 1.7058745e-38
0.24038535 0.0004667677 1.0094991 1.6690321e-38
0.2413189 0.0004667677 1.0094991 1.6598125e-38
0.24225242 0.0004667677 1.0094991 1.6598122e-38
0.24313515 0.00046667017 1.0092882 1.6689239e-38
0.2440685 0.00046667017 1.0092882 1.6505927e-38
0.24500184 0.00046667017 1.0092882 1.7059101e-38
0.24593519 0.00046667017 1.0092882 1.798106e-38
0.24686852 0.00046667017 1.0092882 1.8626432e-38
0.24799035 0.00046702515 1.0100559 1.8166174e-38
0.2489244 0.00046702515 1.0100559 1.8166174e-38
0.24985845 0.00046702515 1.0100559 1.7338208e-38
0.25270608 0.00047058862 1.0177628 1.5495015e-38
0.25364727 0.00047058862 1.0177628 1.3191922e-38
0.2586675 0.00047812847 1.0340695 1.4299348e-38
0.25962377 0.00047812847 1.0340695 1.7617672e-38
0.26541936 0.00048700799 1.0532737 2.0657963e-38
0.26639339 0.00048700799 1.0532737 2.2039441e-38
0.26787224 0.00048792761 1.0552626 2.3509886e-38
0.26884812 0.00048792761 1.0552626 2.2498978e-38
0.26982397 0.00048792761 1.0552626 1.807361e-38
0.27108473 0.00048844091 1.0563728 1.7612269e-38
0.27206159 0.00048844091 1.0563728 1.7889214e-38
0.27303851 0.00048844091 1.0563728 1.9087036e-38
0.27401999 0.00048844918 1.0563906 2.0376694e-38
0.27499691 0.00048844918 1.0563906 2.1022061e-38
0.2759738 0.00048844918 1.0563906 2.1206091e-38
0.27705085 0.00048862578 1.0567726 2.0837304e-38
0.27802807 0.00048862578 1.0567726 2.0191935e-38
0.27900535 0.00048862578 1.0567726 1.9362534e-38
0.28062981 0.00048975536 1.0592155 1.8808281e-38
0.28160936 0.00048975536 1.0592155 1.8070712e-38
0.28258884 0.00048975536 1.0592155 1.7333147e-38
0.28433478 0.00049107906 1.0620784 1.6964366e-38
0.28531694 0.00049107906 1.0620784 1.705692e-38
0.28733307 0.00049285259 1.065914 1.7149835e-38
0.28831875 0.00049285259 1.065914 1.7334227e-38
0.28930449 0.00049285259 1.065914 1.8255824e-38
0.29125556 0.0004944916 1.0694588 1.9731312e-38
0.29224455 0.0004944916 1.0694588 2.0746185e-38
0.29323351 0.0004944916 1.0694588 2.1206807e-38
0.2954374 0.00049653341 1.0738747 2.1299358e-38
0.29643044 0.00049653341 1.0738747 2.102277e-38
0.29742351 0.00049653341 1.0738747 2.0561793e-38
0.16511165 -0.00052085693 1.1264802 2.1296843e-38
0.16615336 -0.00052085693 1.1264802 2.111173e-38
0.16719507 -0.00052085693 1.1264802 2.0741869e-38
0.16823679 -0.00052085693 1.1264802 1.8344782e-38
0.1668707 -0.00051344832 1.1104573 1.7330274e-38
0.1678976 -0.00051344832 1.1104573 1.7422826e-38
0.1689245 -0.00051344832 1.1104573 1.7422104e-38
0.16793993 -0.00050737138 1.0973145 1.6684894e-38
0.16895467 -0.00050737138 1.0973145 1.5394155e-38
0.16996942 -0.00050737138 1.0973145 1.382647e-38
0.17098416 -0.00050737138 1.0973145 1.2535732e-38
0.17085356 -0.00050399278 1.0900074 1.2628646e-38
0.17186154 -0.00050399278 1.0900074 1.4011582e-38
0.17286953 -0.00050399278 1.0900074 1.548779e-38
0.17291407 -0.00050120021 1.0839678 1.5949128e-38
0.17391647 -0.00050120021 1.0839678 1.5948772e-38
0.17491888 -0.00050120021 1.0839678 1.5764023e-38
0.17440635 -0.00049688417 1.0746334 1.5488515e-38
0.17540012 -0.00049688417 1.0746334 1.5304487e-38
0.1763939 -0.00049688417 1.0746334 1.502826e-38
0.17738765 -0.00049688417 1.0746334 1.4936784e-38
0.1761975 -0.00049080083 1.0614766 1.4660557e-38
0.1771791 -0.00049080083 1.0614766 1.5305926e-38
0.1781607 -0.00049080083 1.0614766 1.6781775e-38
0.17778486 -0.00048708179 1.0534333 1.7334949e-38
0.17875902 -0.00048708179 1.0534333 1.7426789e-38
0.17973319 -0.00048708179 1.0534333 1.7611183e-38
0.18046372 -0.00048642512 1.052013 1.7151284e-38
0.18143657 -0.00048642512 1.052013 1.6505914e-38
0.18240942 -0.00048642512 1.052013 1.6136769e-38
0.18329985 -0.0004862065 1.0515403 1.613605e-38
0.18427227 -0.0004862065 1.0515403 1.5859463e-38
0.18524468 -0.0004862065 1.0515403 1.5214096e-38
0.18581416 -0.00048515445 1.0492649 1.4660923e-38
0.18678446 -0.00048515445 1.0492649 1.4476174e-38
0.18775478 -0.00048515445 1.0492649 1.3647492e-38
0.1877293 -0.00048259459 1.0437286 1.309432e-38
0.18869449 -0.00048259459 1.0437286 1.2633345e-38
0.18965967 -0.00048259459 1.0437286 1.189578e-38
0.19062486 -0.00048259459 1.0437286 1.1526637e-38
0.19022296 -0.00047915106 1.0362811 1.0789072e-38
0.19118127 -0.00047915106 1.0362811 9.7752801e-39
0.19213958 -0.00047915106 1.0362811 8.6689326e-39
0.19204737 -0.00047654434 1.0306435 8.2075943e-39
0.19300047 -0.00047654434 1.0306435 9.1299107e-39
0.19395354 -0.00047654434 1.0306435 1.032845e-38
0.19478017 -0.00047623517 1.0299748 1.3646774e-38
0.19573265 -0.00047623517 1.0299748 1.6965816e-38
0.19668512 -0.00047623517 1.0299748 1.8440586e-38
0.19763759 -0.00047623517 1.0299748 1.8072161e-38
0.19859006 -0.00047623517 1.0299748 1.429214e-38
0.20008205 -0.00047752282 1.0327597 7.4696635e-39
0.20103709 -0.00047752282 1.0327597 4.4272105e-39
0.20263141 -0.00047903409 1.0360281 5.1647756e-39
0.20353736 -0.00047891145 1.0357629 5.9941761e-39
0.20449518 -0.00047891145 1.0357629 6.4555144e-39
0.20545299 -0.00047891145 1.0357629 7.3763917e-39
0.20590582 -0.00047773978 1.0332289 6.1778499e-39
0.20686132 -0.00047773978 1.0332289 5.9012616e-39
0.20781679 -0.00047773978 1.0332289 6.2704043e-39
0.20836583 -0.00047680968 1.0312173 6.7310251e-39
0.20931944 -0.00047680968 1.0312173 7.5607871e-39
0.21027306 -0.00047680968 1.0312173 7.7448183e-39
0.21059348 -0.00047538034 1.028126 7.4685915e-39
0.21154423 -0.00047538034 1.028126 8.0217639e-39
0.212495 -0.00047538034 1.028126 7.7448183e-39
0.21298306 -0.00047434983 1.0258973 7.9295683e-39
0.21393175 -0.00047434983 1.0258973 7.3763945e-39
0.21488045 -0.00047434983 1.0258973 6.1778555e-39
0.21582915 -0.00047434983 1.0258973 6.0860228e-39
0.21677786 -0.00047434983 1.0258973 5.4417352e-39
0.21853837 -0.0004761185 1.0297225 4.4290224e-39
0.21766788 -0.0004721646 1.0211712 5.2598607e-39
0.21861221 -0.0004721646 1.0211712 5.9974271e-39
0.21955653 -0.0004721646 1.0211712 6.5505995e-39
0.21941561 -0.00046984071 1.0161452 6.3683704e-39
0.22035529 -0.00046984071 1.0161452 6.1865001e-39
0.22129497 -0.00046984071 1.0161452 1.3468876e-38
0.22223465 -0.00046984071 1.0161452 1.9461232e-38
0.22317433 -0.00046984071 1.0161452 2.0474651e-38
0.22470951 -0.00046912217 1.0145912 1.9919689e-38
0.22564776 -0.00046912217 1.0145912 2.0104077e-38
0.226586 -0.00046912217 1.0145912 2.1210411e-38
0.22752012 -0.0004691137 1.0145729 2.3509886e-38
0.22845836 -0.0004691137 1.0145729 2.3509886e-38
0.22939658 -0.0004691137 1.0145729 2.3509886e-38
0.22996283 -0.00046835607 1.0129343 2.3509886e-38
0.23089953 -0.00046835607 1.0129343 2.1393364e-38
0.23183624 -0.00046835607 1.0129343 1.853495e-38
0.23277296 -0.00046835607 1.0129343 1.8257644e-38
0.23370966 -0.00046835607 1.0129343 1.7888861e-38
0.23473953 -0.00046854198 1.0133364 1.7611918e-38
