# .PCD v0.7 - Point Cloud Data file format
VERSION 0.7
FIELDS x y z rgb
SIZE 4 4 4 4
TYPE F F F F
COUNT 1 1 1 1
WIDTH 981
HEIGHT 1
VIEWPOINT 0 0 0 1 0 0 0
POINTS 981
DATA ascii
0.25414044 0.0024203851 0.74781054 4.1509683e-39
0.25483197 0.0024203851 0.74781054 3.8743843e-39
0.2555235 0.0024203851 0.74781054 2.9531496e-39
0.25532264 0.0024119548 0.74520588 2.5850902e-39
0.25601175 0.0024119548 0.74520588 8.4852546e-39
0.2567009 0.0024119548 0.74520588 1.0605757e-38
0.25739002 0.0024119548 0.74520588 9.4994121e-39
0.25521973 0.002385231 0.73694921 9.1302736e-39
0.25590122 0.002385231 0.73694921 8.8547658e-39
0.25658271 0.002385231 0.73694921 8.3023136e-39
0.2572642 0.002385231 0.73694921 8.3023136e-39
0.25794572 0.002385231 0.73694921 8.3945093e-39
0.25414044 0.0017288465 0.74781054 4.1509683e-39
0.25483197 0.0017288465 0.74781054 4.1509712e-39
0.2555235 0.0017288465 0.74781054 2.9531496e-39
0.25532264 0.0017228249 0.74520588 2.3085033e-39
0.25601175 0.0017228249 0.74520588 8.2090264e-39
0.2567009 0.0017228249 0.74520588 1.0513561e-38
0.25739002 0.0017228249 0.74520588 9.3150208e-39
0.25521973 0.0017037364 0.73694921 8.6692955e-39
0.25590122 0.0017037364 0.73694921 8.3937876e-39
0.25658271 0.0017037364 0.73694921 8.3945093e-39
0.2572642 0.0017037364 0.73694921 8.3945093e-39
0.25794572 0.0017037364 0.73694921 8.3945093e-39
0.25290295 0.001032257 0.74416924 3.9676561e-39
0.25359112 0.001032257 0.74416924 3.8751031e-39
0.25427929 0.001032257 0.74416924 2.7694786e-39
0.25496748 0.001032257 0.74416924 2.2170265e-39
0.25482252 0.0010288932 0.74174422 7.7491245e-39
0.25550848 0.0010288932 0.74174422 1.0422442e-38
0.25619438 0.0010288932 0.74174422 9.3157369e-39
0.25688034 0.0010288932 0.74174422 8.9469586e-39
0.25382775 0.0010139591 0.73097801 8.6714535e-39
0.25450373 0.0010139591 0.73097801 8.3955855e-39
0.2551797 0.0010139591 0.73097801 8.3955855e-39
0.25585568 0.0010139591 0.73097801 8.2111942e-39
0.25653163 0.0010139591 0.73097801 8.2111942e-39
0.25290295 0.00034408565 0.74416924 3.9676561e-39
0.25359112 0.00034408565 0.74416924 3.9676589e-39
0.25427929 0.00034408565 0.74416924 2.4010549e-39
0.25496748 0.00034408565 0.74416924 1.6638542e-39
0.25482252 0.0003429644 0.74174422 7.3799818e-39
0.25550848 0.0003429644 0.74174422 1.0514996e-38
0.25619438 0.0003429644 0.74174422 9.5926839e-39
0.25688034 0.0003429644 0.74174422 9.0391542e-39
0.25382775 0.00033798636 0.73097801 8.3945037e-39
0.25450373 0.00033798636 0.73097801 8.3955855e-39
0.2551797 0.00033798636 0.73097801 8.579618e-39
0.25585568 0.00033798636 0.73097801 8.3955855e-39
0.25653163 0.00033798636 0.73097801 8.2111942e-39
0.25290295 -0.00034408565 0.74416924 3.6921468e-39
0.25359112 -0.00034408565 0.74416924 3.5995952e-39
0.25427929 -0.00034408565 0.74416924 2.4939708e-39
0.25496748 -0.00034408565 0.74416924 1.7567686e-39
0.25482252 -0.0003429644 0.74174422 7.4732578e-39
0.25550848 -0.0003429644 0.74174422 1.0330965e-38
0.25619438 -0.0003429644 0.74174422 9.3171732e-39
0.25688034 -0.0003429644 0.74174422 8.5792509e-39
0.25382775 -0.00033798636 0.73097801 8.1189958e-39
0.25450373 -0.00033798636 0.73097801 8.1197147e-39
0.2551797 -0.00033798636 0.73097801 8.3966617e-39
0.25585568 -0.00033798636 0.73097801 8.2119131e-39
0.25653163 -0.00033798636 0.73097801 8.026803e-39
0.25431132 -0.0010380055 0.74831343 3.6921468e-39
0.25500336 -0.0010380055 0.74831343 3.5074024e-39
0.25569534 -0.0010380055 0.74831343 2.4939708e-39
0.25550067 -0.0010344157 0.74572545 1.7567686e-39
0.25619027 -0.0010344157 0.74572545 7.3810622e-39
0.2568799 -0.0010344157 0.74572545 1.0423161e-38
0.25756949 -0.0010344157 0.74572545 9.4093689e-39
0.2538155 -0.0010166175 0.73289454 8.6714479e-39
0.25449324 -0.0010166175 0.73289454 8.1193517e-39
0.255171 -0.0010166175 0.73289454 7.9356835e-39
0.25584874 -0.0010166175 0.73289454 8.2119103e-39
0.2565265 -0.0010166175 0.73289454 7.843132e-39
0.25431132 -0.0017300091 0.74831343 3.8754563e-39
0.25500336 -0.0017300091 0.74831343 3.6917909e-39
0.25569534 -0.0017300091 0.74831343 3.0471417e-39
0.25550067 -0.001724026 0.74572545 2.5861664e-39
0.25619027 -0.001724026 0.74572545 7.3810622e-39
0.2568799 -0.001724026 0.74572545 1.0515715e-38
0.25756949 -0.001724026 0.74572545 9.5022834e-39
0.2538155 -0.0016943625 0.73289454 8.9491124e-39
0.25449324 -0.0016943625 0.73289454 8.2122662e-39
0.255171 -0.0016943625 0.73289454 8.1197147e-39
0.25584874 -0.0016943625 0.73289454 8.1197147e-39
0.2565265 -0.0016943625 0.73289454 7.7509363e-39
0.25431132 -0.0024220129 0.74831343 4.0602076e-39
0.25500336 -0.0024220129 0.74831343 4.1520473e-39
0.25569534 -0.0024220129 0.74831343 3.5995952e-39
0.25550067 -0.0024136365 0.74572545 2.9542286e-39
0.25619027 -0.0024136365 0.74572545 8.0253512e-39
0.2568799 -0.0024136365 0.74572545 1.0884139e-38
0.25756949 -0.0024136365 0.74572545 9.594479e-39
0.2538155 -0.0023721077 0.73289454 8.9491124e-39
0.25449324 -0.0023721077 0.73289454 8.2122662e-39
0.255171 -0.0023721077 0.73289454 8.2119103e-39
0.25584874 -0.0023721077 0.73289454 8.1197147e-39
0.2565265 -0.0023721077 0.73289454 7.843132e-39
0.25484934 -0.0030953358 0.74382442 2.7701975e-39
0.25553718 -0.0030953358 0.74382442 8.0264316e-39
0.25622505 -0.0030953358 0.74382442 1.0976334e-38
0.25691289 -0.0030953358 0.74382442 9.4100877e-39
0.25760075 -0.0030953358 0.74382442 8.7647211e-39
0.25368083 -0.0030401163 0.73055488 8.1200706e-39
0.25435641 -0.0030401163 0.73055488 8.3966617e-39
0.25503197 -0.0030401163 0.73055488 8.3041059e-39
0.25570756 -0.0030401163 0.73055488 8.1197175e-39
0.25638315 -0.0030401163 0.73055488 7.6587393e-39
0.25484934 -0.0037831883 0.74382442 2.4017751e-39
0.25553718 -0.0037831883 0.74382442 7.842039e-39
0.25622505 -0.0037831883 0.74382442 1.0976334e-38
0.25691289 -0.0037831883 0.74382442 9.5022834e-39
0.25760075 -0.0037831883 0.74382442 8.8569168e-39
0.25368083 -0.0037156977 0.73055488 8.3959386e-39
0.25435641 -0.0037156977 0.73055488 8.5799739e-39
0.25503197 -0.0037156977 0.73055488 8.3959414e-39
0.25570756 -0.0037156977 0.73055488 8.2111942e-39
0.25638315 -0.0037156977 0.73055488 7.9342486e-39
0.25484934 -0.0044710408 0.74382442 1.940797e-39
0.25553718 -0.0044710408 0.74382442 7.4732578e-39
0.25622505 -0.0044710408 0.74382442 1.0700108e-38
0.25691289 -0.0044710408 0.74382442 9.5022834e-39
0.25760075 -0.0044710408 0.74382442 8.8569168e-39
0.25368083 -0.0043912791 0.73055488 8.3959386e-39
0.25435641 -0.0043912791 0.73055488 8.2111914e-39
0.25503197 -0.0043912791 0.73055488 8.2111914e-39
0.25570756 -0.0043912791 0.73055488 8.026803e-39
0.25638315 -0.0043912791 0.73055488 8.026803e-39
0.25491813 -0.0051602861 0.74402523 1.940797e-39
0.25560617 -0.0051602861 0.74402523 7.7498433e-39
0.25629422 -0.0051602861 0.74402523 1.0700108e-38
0.25698224 -0.0051602861 0.74402523 9.3178921e-39
0.25767028 -0.0051602861 0.74402523 8.5799711e-39
0.25195011 -0.005032293 0.7255708 8.0267974e-39
0.25262111 -0.005032293 0.7255708 8.1189958e-39
0.25329205 -0.005032293 0.7255708 8.0268002e-39
0.25396305 -0.005032293 0.7255708 7.9342486e-39
0.25463402 -0.005032293 0.7255708 8.026803e-39
0.25491813 -0.0058483239 0.74402523 2.1248281e-39
0.25560617 -0.0058483239 0.74402523 8.3022982e-39
0.25629422 -0.0058483239 0.74402523 1.0607911e-38
0.25698224 -0.0058483239 0.74402523 9.2249762e-39
0.25767028 -0.0058483239 0.74402523 8.2115473e-39
0.25195011 -0.0057032648 0.7255708 8.1193517e-39
0.25262111 -0.0057032648 0.7255708 8.1189958e-39
0.25329205 -0.0057032648 0.7255708 7.9346045e-39
0.25396305 -0.0057032648 0.7255708 7.8420516e-39
0.25463402 -0.0057032648 0.7255708 7.9342486e-39
0.25491813 -0.0065363622 0.74402523 2.2166636e-39
0.25560617 -0.0065363622 0.74402523 8.2097439e-39
0.25629422 -0.0065363622 0.74402523 1.0238051e-38
0.25698224 -0.0065363622 0.74402523 9.0402262e-39
0.25767028 -0.0065363622 0.74402523 8.3948596e-39
0.25195011 -0.0063742376 0.7255708 8.3948596e-39
0.25262111 -0.0063742376 0.7255708 8.1182769e-39
0.25329205 -0.0063742376 0.7255708 8.0260813e-39
0.25396305 -0.0063742376 0.7255708 7.9335283e-39
0.25463402 -0.0063742376 0.7255708 7.9335283e-39
0.25505471 -0.0072282711 0.74442387 2.2166636e-39
0.25574312 -0.0072282711 0.74442387 7.8413201e-39
0.25643152 -0.0072282711 0.74442387 9.5926811e-39
0.25711992 -0.0072282711 0.74442387 8.7639995e-39
0.25780836 -0.0072282711 0.74442387 8.302664e-39
0.25245705 -0.0070593855 0.72703069 8.0260785e-39
0.25312939 -0.0070593855 0.72703069 8.0260813e-39
0.2538017 -0.0070593855 0.72703069 7.9338843e-39
0.25447404 -0.0070593855 0.72703069 7.8413327e-39
0.25514635 -0.0070593855 0.72703069 7.8413327e-39
0.25505471 -0.0079166777 0.74442387 2.4010549e-39
0.25574312 -0.0079166777 0.74442387 7.8413201e-39
0.25643152 -0.0079166777 0.74442387 9.5926811e-39
0.25711992 -0.0079166777 0.74442387 8.9473117e-39
0.25780836 -0.0079166777 0.74442387 8.3941407e-39
0.25245705 -0.0077317078 0.72703069 7.8416858e-39
0.25312939 -0.0077317078 0.72703069 7.8416886e-39
0.2538017 -0.0077317078 0.72703069 7.6569386e-39
0.25447404 -0.0077317078 0.72703069 7.4729103e-39
0.25514635 -0.0077317078 0.72703069 7.6569414e-39
0.25505471 -0.0086050844 0.74442387 1.939718e-39
0.25574312 -0.0086050844 0.74442387 8.2090236e-39
0.25643152 -0.0086050844 0.74442387 9.131703e-39
0.25711992 -0.0086050844 0.74442387 8.8551161e-39
0.25780836 -0.0086050844 0.74442387 8.0249981e-39
0.25245705 -0.0084040305 0.72703069 7.8416886e-39
0.25312939 -0.0084040305 0.72703069 7.6569386e-39
0.2538017 -0.0084040305 0.72703069 7.4729075e-39
0.25447404 -0.0084040305 0.72703069 7.6569414e-39
0.25514635 -0.0084040305 0.72703069 7.9335283e-39
0.2538628 -0.0093255723 0.7469936 3.2300868e-39
0.25455359 -0.0093255723 0.7469936 2.9531468e-39
0.25524437 -0.0093255723 0.7469936 2.3999731e-39
0.25523245 -0.0092999684 0.74494267 2.1233904e-39
0.25592133 -0.0092999684 0.74494267 8.3015794e-39
0.25661024 -0.0092999684 0.74494267 1.0421363e-38
0.25729913 -0.0092999684 0.74494267 8.8551189e-39
0.25798801 -0.0092999684 0.74494267 8.3015892e-39
0.2525478 -0.0090796147 0.727292 7.749493e-39
0.25322038 -0.0090796147 0.727292 7.4729103e-39
0.25389293 -0.0090796147 0.727292 7.4729103e-39
0.25456551 -0.0090796147 0.727292 7.7491371e-39
0.25523806 -0.0090796147 0.727292 8.0260841e-39
0.2538628 -0.010016356 0.7469936 3.4148382e-39
0.25455359 -0.010016356 0.7469936 3.0456984e-39
0.25524437 -0.010016356 0.7469936 2.1237463e-39
0.25523245 -0.0099888546 0.74494267 1.9389991e-39
0.25592133 -0.0099888546 0.74494267 8.116828e-39
0.25661024 -0.0099888546 0.74494267 1.0421363e-38
0.25729913 -0.0099888546 0.74494267 8.9473145e-39
0.25798801 -0.0099888546 0.74494267 8.3941435e-39
0.2525478 -0.0097521795 0.727292 7.9338843e-39
0.25322038 -0.0097521795 0.727292 7.749493e-39
0.25389293 -0.0097521795 0.727292 7.6569386e-39
0.25456551 -0.0097521795 0.727292 7.4729103e-39
0.25523806 -0.0097521795 0.727292 7.7491371e-39
0.2538628 -0.010707139 0.7469936 3.5988666e-39
0.25455359 -0.010707139 0.7469936 2.953144e-39
0.25524437 -0.010707139 0.7469936 2.0315507e-39
0.25523245 -0.010677742 0.74494267 2.3999759e-39
0.25592133 -0.010677742 0.74494267 8.0246323e-39
0.25661024 -0.010677742 0.74494267 1.0145135e-38
0.25729913 -0.010677742 0.74494267 8.9473145e-39
0.25798801 -0.010677742 0.74494267 8.4863392e-39
0.2525478 -0.010424743 0.727292 8.1171965e-39
0.25322038 -0.010424743 0.727292 8.0250009e-39
0.25389293 -0.010424743 0.727292 7.749493e-39
0.25456551 -0.010424743 0.727292 7.4729103e-39
0.25523806 -0.010424743 0.727292 7.3807147e-39
0.25404811 -0.011406242 0.74753886 3.3226398e-39
0.2547394 -0.011406242 0.74753886 3.0456956e-39
0.25543067 -0.011406242 0.74753886 2.1244624e-39
0.25555116 -0.011380821 0.7458728 2.1244652e-39
0.25624087 -0.011380821 0.7458728 7.4718145e-39
0.25693065 -0.011380821 0.7458728 9.1309799e-39
0.25762036 -0.011380821 0.7458728 9.0395073e-39
0.25831014 -0.011380821 0.7458728 8.3019451e-39
0.25312558 -0.011122696 0.72895592 7.8416858e-39
0.25379971 -0.011122696 0.72895592 7.6569386e-39
0.25447381 -0.011122696 0.72895592 7.6569386e-39
0.2551479 -0.011122696 0.72895592 7.6569414e-39
0.255822 -0.011122696 0.72895592 7.6569414e-39
0.25404811 -0.012097529 0.74753886 2.769466e-39
0.2547394 -0.012097529 0.74753886 2.7694688e-39
0.25543067 -0.012097529 0.74753886 2.1244624e-39
0.25555116 -0.012070566 0.7458728 2.6776389e-39
0.25624087 -0.012070566 0.7458728 7.5640101e-39
0.25693065 -0.012070566 0.7458728 9.9607406e-39
0.25762036 -0.012070566 0.7458728 9.0395073e-39
0.25831014 -0.012070566 0.7458728 8.3941407e-39
0.25312558 -0.011796799 0.72895592 7.6572946e-39
0.25379971 -0.011796799 0.72895592 7.6569386e-39
0.25447381 -0.011796799 0.72895592 7.6569386e-39
0.2551479 -0.011796799 0.72895592 7.6569414e-39
0.255822 -0.011796799 0.72895592 7.8413327e-39
0.25313422 -0.012742811 0.74484974 2.4928777e-39
0.25382304 -0.012742811 0.74484974 2.4003262e-39
0.2545118 -0.012742811 0.74484974 2.1244624e-39
0.25520062 -0.012742811 0.74484974 2.7698346e-39
0.25521868 -0.01270941 0.74289739 8.1171839e-39
0.25590572 -0.01270941 0.74289739 1.0237327e-38
0.25659269 -0.01270941 0.74289739 8.9473117e-39
0.25727969 -0.01270941 0.74289739 8.1171937e-39
0.25229287 -0.012429875 0.72655785 7.8416858e-39
0.25296476 -0.012429875 0.72655785 7.749493e-39
0.25363663 -0.012429875 0.72655785 7.6569386e-39
0.25430855 -0.012429875 0.72655785 7.4729103e-39
0.25498042 -0.012429875 0.72655785 7.9335283e-39
0.25313422 -0.013431611 0.74484974 2.4003234e-39
0.25382304 -0.013431611 0.74484974 2.3081305e-39
0.2545118 -0.013431611 0.74484974 2.0322667e-39
0.25520062 -0.013431611 0.74484974 2.8620302e-39
0.25521868 -0.013396406 0.74289739 8.2093795e-39
0.25590572 -0.013396406 0.74289739 1.0145132e-38
0.25659269 -0.013396406 0.74289739 8.6707234e-39
0.25727969 -0.013396406 0.74289739 8.0249981e-39
0.25229287 -0.01310176 0.72655785 7.749493e-39
0.25296476 -0.01310176 0.72655785 7.8413327e-39
0.25363663 -0.01310176 0.72655785 7.3807147e-39
0.25430855 -0.01310176 0.72655785 7.3807147e-39
0.25498042 -0.01310176 0.72655785 7.8413327e-39
0.25313422 -0.014120412 0.74484974 2.4003234e-39
0.25382304 -0.014120412 0.74484974 2.3081305e-39
0.2545118 -0.014120412 0.74484974 2.0322667e-39
0.25520062 -0.014120412 0.74484974 2.6776389e-39
0.25521868 -0.0140834 0.74289739 8.1171839e-39
0.25590572 -0.0140834 0.74289739 1.0052936e-38
0.25659269 -0.0140834 0.74289739 8.8551161e-39
0.25727969 -0.0140834 0.74289739 8.0249981e-39
0.25229287 -0.013773645 0.72655785 7.7494902e-39
0.25296476 -0.013773645 0.72655785 7.6569386e-39
0.25363663 -0.013773645 0.72655785 7.3807119e-39
0.25430855 -0.013773645 0.72655785 7.3807147e-39
0.25498042 -0.013773645 0.72655785 7.7491371e-39
0.25414318 -0.014868241 0.74781865 2.4928777e-39
0.25483474 -0.014868241 0.74781865 2.400329e-39
0.25552627 -0.014868241 0.74781865 1.9400711e-39
0.25533167 -0.014816816 0.74523216 2.7698346e-39
0.25602078 -0.014816816 0.74523216 7.8402383e-39
0.25670996 -0.014816816 0.74523216 1.0145132e-38
0.25739911 -0.014816816 0.74523216 8.9473117e-39
0.25808826 -0.014816816 0.74523216 8.3019451e-39
0.25146407 -0.014398076 0.72417104 7.8416858e-39
0.25213376 -0.014398076 0.72417104 7.4729075e-39
0.25280342 -0.014398076 0.72417104 7.4729075e-39
0.2534731 -0.014398076 0.72417104 7.6569414e-39
0.25414279 -0.014398076 0.72417104 7.9335283e-39
0.25414318 -0.015559787 0.74781865 2.4003234e-39
0.25483474 -0.015559787 0.74781865 2.1237435e-39
0.25552627 -0.015559787 0.74781865 1.9400711e-39
0.25533167 -0.01550597 0.74523216 2.8620302e-39
0.25602078 -0.01550597 0.74523216 7.5647304e-39
0.25670996 -0.01550597 0.74523216 9.7774283e-39
0.25739911 -0.01550597 0.74523216 8.9473117e-39
0.25808826 -0.01550597 0.74523216 8.1186328e-39
0.25146407 -0.015067754 0.72417104 7.8416858e-39
0.25213376 -0.015067754 0.72417104 7.6580176e-39
0.25280342 -0.015067754 0.72417104 7.6580176e-39
0.2534731 -0.015067754 0.72417104 7.8420516e-39
0.25414279 -0.015067754 0.72417104 8.026803e-39
0.25414318 -0.016251333 0.74781865 2.3081277e-39
0.25483474 -0.016251333 0.74781865 1.9393508e-39
0.25552627 -0.016251333 0.74781865 1.9400711e-39
0.25533167 -0.016195124 0.74523216 2.6776389e-39
0.25602078 -0.016195124 0.74523216 7.656926e-39
0.25670996 -0.016195124 0.74523216 9.1320589e-39
0.25739911 -0.016195124 0.74523216 8.7639995e-39
0.25808826 -0.016195124 0.74523216 7.9338815e-39
0.25146407 -0.015737431 0.72417104 7.9346017e-39
0.25213376 -0.015737431 0.72417104 8.1189958e-39
0.25280342 -0.015737431 0.72417104 8.0268002e-39
0.2534731 -0.015737431 0.72417104 8.026803e-39
0.25414279 -0.015737431 0.72417104 8.026803e-39
0.25427112 -0.016951408 0.74819505 2.3081277e-39
0.25496301 -0.016951408 0.74819505 1.9400683e-39
0.2556549 -0.016951408 0.74819505 1.9400711e-39
0.25513902 -0.016871542 0.74466997 2.4943239e-39
0.25582767 -0.016871542 0.74466997 7.7491189e-39
0.25651631 -0.016871542 0.74466997 8.6721556e-39
0.25720492 -0.016871542 0.74466997 8.579604e-39
0.25789356 -0.016871542 0.74466997 7.8424019e-39
0.25118208 -0.016345182 0.72143769 8.303387e-39
0.25184923 -0.016345182 0.72143769 8.1189958e-39
0.25251639 -0.016345182 0.72143769 7.8420516e-39
0.25318354 -0.016345182 0.72143769 7.6580204e-39
0.2538507 -0.016345182 0.72143769 7.8413327e-39
0.25427112 -0.017643303 0.74819505 2.1248155e-39
0.25496301 -0.017643303 0.74819505 2.0322639e-39
0.2556549 -0.017643303 0.74819505 1.5723634e-39
0.25513902 -0.017560177 0.74466997 2.5865195e-39
0.25582767 -0.017560177 0.74466997 7.473611e-39
0.25651631 -0.017560177 0.74466997 8.9483837e-39
0.25720492 -0.017560177 0.74466997 8.2115417e-39
0.25789356 -0.017560177 0.74466997 7.9349577e-39
0.25118208 -0.017012332 0.72143769 8.2111914e-39
0.25184923 -0.017012332 0.72143769 8.0268002e-39
0.25251639 -0.017012332 0.72143769 7.6580204e-39
0.25318354 -0.017012332 0.72143769 7.5658248e-39
0.2538507 -0.017012332 0.72143769 7.4729103e-39
0.25427112 -0.018335195 0.74819505 2.0326199e-39
0.25496301 -0.018335195 0.74819505 1.664559e-39
0.2556549 -0.018335195 0.74819505 1.2035823e-39
0.25513902 -0.018248811 0.74466997 2.2184573e-39
0.25582767 -0.018248811 0.74466997 7.6576421e-39
0.25651631 -0.018248811 0.74466997 8.6728758e-39
0.25720492 -0.018248811 0.74466997 8.3040961e-39
0.25789356 -0.018248811 0.74466997 7.6590896e-39
0.25118208 -0.017679483 0.72143769 7.8434851e-39
0.25184923 -0.017679483 0.72143769 7.7512923e-39
0.25251639 -0.017679483 0.72143769 7.8424075e-39
0.25318354 -0.017679483 0.72143769 7.565822e-39
0.2538507 -0.017679483 0.72143769 7.3807147e-39
0.25521541 -0.019097753 0.7509737 1.6638373e-39
0.25590989 -0.019097753 0.7509737 1.2957779e-39
0.25660434 -0.019097753 0.7509737 1.1121055e-39
0.25612995 -0.019010995 0.74756211 2.0340646e-39
0.25682124 -0.019010995 0.74756211 7.2899386e-39
0.25751257 -0.019010995 0.74756211 8.6728758e-39
0.25820386 -0.019010995 0.74756211 8.2122606e-39
0.25889519 -0.019010995 0.74756211 7.9360367e-39
0.25186434 -0.018445458 0.72532374 7.843841e-39
0.25253507 -0.018445458 0.72532374 7.9356807e-39
0.25320584 -0.018445458 0.72532374 7.7512895e-39
0.25387657 -0.018445458 0.72532374 7.8424075e-39
0.2545473 -0.018445458 0.72532374 7.6580176e-39
0.25521541 -0.019792218 0.7509737 1.5716417e-39
0.25590989 -0.019792218 0.7509737 1.2957779e-39
0.25660434 -0.019792218 0.7509737 5.5821285e-40
0.25612995 -0.019702302 0.74756211 1.7574777e-39
0.25682124 -0.019702302 0.74756211 7.6576421e-39
0.25751257 -0.019702302 0.74756211 9.4104409e-39
0.25820386 -0.019702302 0.74756211 8.5803243e-39
0.25889519 -0.019702302 0.74756211 7.6590896e-39
0.25186434 -0.019116202 0.72532374 7.7512895e-39
0.25253507 -0.019116202 0.72532374 7.7512895e-39
0.25320584 -0.019116202 0.72532374 7.7512923e-39
0.25387657 -0.019116202 0.72532374 7.8424075e-39
0.2545473 -0.019116202 0.72532374 7.4736264e-39
0.25521541 -0.020486681 0.7509737 1.4794461e-39
0.25590989 -0.020486681 0.7509737 1.5716445e-39
0.25660434 -0.020486681 0.7509737 1.4798118e-39
0.25612995 -0.020393612 0.74756211 2.2173797e-39
0.25682124 -0.020393612 0.74756211 7.7498405e-39
0.25751257 -0.020393612 0.74756211 9.7781472e-39
0.25820386 -0.020393612 0.74756211 8.2115445e-39
0.25889519 -0.020393612 0.74756211 8.0267974e-39
0.25186434 -0.019786946 0.72532374 7.2903113e-39
0.25253507 -0.019786946 0.72532374 7.4743452e-39
0.25320584 -0.019786946 0.72532374 7.6587365e-39
0.25387657 -0.019786946 0.72532374 7.6580204e-39
0.2545473 -0.019786946 0.72532374 7.3814335e-39
0.25447515 -0.021119706 0.74879545 1.5716417e-39
0.2551676 -0.021119706 0.74879545 1.5716445e-39
0.25586006 -0.021119706 0.74879545 1.5720074e-39
0.25543833 -0.021027988 0.74554354 2.5865223e-39
0.25612777 -0.021027988 0.74554354 8.1189832e-39
0.25681722 -0.021027988 0.74554354 1.0054735e-38
0.25750667 -0.021027988 0.74554354 8.5803271e-39
0.25819612 -0.021027988 0.74554354 7.9346017e-39
0.25176463 -0.02044959 0.72503656 7.5668968e-39
0.25243509 -0.02044959 0.72503656 7.1981185e-39
0.25310558 -0.02044959 0.72503656 7.4743452e-39
0.25377607 -0.02044959 0.72503656 7.4736292e-39
0.25444654 -0.02044959 0.72503656 7.1966822e-39
0.25447515 -0.021812156 0.74879545 1.754954e-39
0.2551676 -0.021812156 0.74879545 1.4790929e-39
0.25586006 -0.021812156 0.74879545 1.5720074e-39
0.25543833 -0.021717429 0.74554354 2.5865223e-39
0.25612777 -0.021717429 0.74554354 8.3030143e-39
0.25681722 -0.021717429 0.74554354 1.0330965e-38
0.25750667 -0.021717429 0.74554354 8.856914e-39
0.25819612 -0.021717429 0.74554354 7.9346017e-39
0.25176463 -0.021120068 0.72503656 7.565822e-39
0.25243509 -0.021120068 0.72503656 7.4736292e-39
0.25310558 -0.021120068 0.72503656 7.5658248e-39
0.25377607 -0.021120068 0.72503656 7.4736292e-39
0.25444654 -0.021120068 0.72503656 7.2888792e-39
0.25447515 -0.022504605 0.74879545 1.754954e-39
0.2551676 -0.022504605 0.74879545 1.3868973e-39
0.25586006 -0.022504605 0.74879545 1.4798118e-39
0.25543833 -0.022406872 0.74554354 2.3095753e-39
0.25612777 -0.022406872 0.74554354 8.1189832e-39
0.25681722 -0.022406872 0.74554354 1.0330965e-38
0.25750667 -0.022406872 0.74554354 8.6725227e-39
0.25819612 -0.022406872 0.74554354 7.5661779e-39
0.25176463 -0.021790547 0.72503656 7.1970381e-39
0.25243509 -0.021790547 0.72503656 7.5658248e-39
0.25310558 -0.021790547 0.72503656 7.5658248e-39
0.25377607 -0.021790547 0.72503656 7.5658248e-39
0.25444654 -0.021790547 0.72503656 7.4736292e-39
0.25417447 -0.023360342 0.75406629 1.8457077e-39
0.25487179 -0.023360342 0.75406629 1.6623954e-39
0.2555691 -0.023360342 0.75406629 1.8467895e-39
0.25507027 -0.023251306 0.75054663 1.6627611e-39
0.25576437 -0.023251306 0.75054663 1.2947017e-39
0.25645843 -0.023251306 0.75054663 2.8126863e-40
0.25628489 -0.023172859 0.74801439 1.9411529e-39
0.2569766 -0.023172859 0.74801439 7.8420361e-39
0.25766835 -0.023172859 0.74801439 1.0330965e-38
0.25836006 -0.023172859 0.74801439 8.7640023e-39
0.2590518 -0.023172859 0.74801439 7.0115692e-39
0.2537353 -0.022636838 0.73071176 7.1970381e-39
0.25441104 -0.022636838 0.73071176 7.3814335e-39
0.25508675 -0.022636838 0.73071176 7.2888792e-39
0.25576249 -0.022636838 0.73071176 7.4729103e-39
0.2564382 -0.022636838 0.73071176 7.7491371e-39
0.25417447 -0.024057664 0.75406629 1.6616765e-39
0.25487179 -0.024057664 0.75406629 1.569841e-39
0.2555691 -0.024057664 0.75406629 1.6620395e-39
0.25507027 -0.023945373 0.75054663 1.47873e-39
0.25576437 -0.023945373 0.75054663 1.0184735e-39
0.25645843 -0.023945373 0.75054663 9.6161305e-41
0.25628489 -0.023864584 0.74801439 1.5712914e-39
0.2569766 -0.023864584 0.74801439 7.1037522e-39
0.25766835 -0.023864584 0.74801439 9.8696267e-39
0.25836006 -0.023864584 0.74801439 8.5792509e-39
0.2590518 -0.023864584 0.74801439 7.2885148e-39
0.2537353 -0.023312563 0.73071176 7.1041236e-39
0.25441104 -0.023312563 0.73071176 6.9204554e-39
0.25508675 -0.023312563 0.73071176 6.8282598e-39
0.25576249 -0.023312563 0.73071176 7.1037677e-39
0.2564382 -0.023312563 0.73071176 7.4729103e-39
0.25417447 -0.024754988 0.75406629 1.6616765e-39
0.25487179 -0.024754988 0.75406629 1.6616765e-39
0.2555691 -0.024754988 0.75406629 1.5691236e-39
0.25507027 -0.024639443 0.75054663 1.4772909e-39
0.25576437 -0.024639443 0.75054663 1.2014299e-39
0.25645843 -0.024639443 0.75054663 3.2468085e-42
0.25628489 -0.024556313 0.74801439 1.7546064e-39
0.2569766 -0.024556313 0.74801439 6.5495023e-39
0.25766835 -0.024556313 0.74801439 9.7759934e-39
0.25836006 -0.024556313 0.74801439 8.4863364e-39
0.2590518 -0.024556313 0.74801439 7.1956004e-39
0.2537353 -0.02398829 0.73071176 6.7353425e-39
0.25441104 -0.02398829 0.73071176 7.011572e-39
0.25508675 -0.02398829 0.73071176 7.011572e-39
0.25576249 -0.02398829 0.73071176 7.2881617e-39
0.2564382 -0.02398829 0.73071176 7.3803588e-39
0.25377014 -0.025204381 0.74672097 1.3850953e-39
0.25446069 -0.025204381 0.74672097 1.1095902e-39
0.25515121 -0.025204381 0.74672097 1.2939814e-39
0.25510135 -0.025131442 0.74456 1.7546036e-39
0.25578988 -0.025131442 0.74456 6.4573038e-39
0.25647843 -0.025131442 0.74456 9.4997624e-39
0.25716695 -0.025131442 0.74456 8.3941379e-39
0.2578555 -0.025131442 0.74456 7.3796287e-39
0.25278828 -0.024571961 0.72798449 6.8275381e-39
0.25346148 -0.024571961 0.72798449 6.7353453e-39
0.25413468 -0.024571961 0.72798449 6.7353453e-39
0.25480789 -0.024571961 0.72798449 7.1037677e-39
0.25548109 -0.024571961 0.72798449 7.1037677e-39
0.25377014 -0.025894914 0.74672097 1.2014201e-39
0.25446069 -0.025894914 0.74672097 1.1088685e-39
0.25515121 -0.025894914 0.74672097 1.2939814e-39
0.25510135 -0.025819974 0.74456 1.4783769e-39
0.25578988 -0.025819974 0.74456 6.4573038e-39
0.25647843 -0.025819974 0.74456 9.2231755e-39
0.25716695 -0.025819974 0.74456 8.025354e-39
0.2578555 -0.025819974 0.74456 7.3796287e-39
0.25278828 -0.025245165 0.72798449 7.1034047e-39
0.25346148 -0.025245165 0.72798449 6.8264605e-39
0.25413468 -0.025245165 0.72798449 6.7353453e-39
0.25480789 -0.025245165 0.72798449 6.8275409e-39
0.25548109 -0.025245165 0.72798449 6.8275409e-39
0.25377014 -0.026585445 0.74672097 1.2014201e-39
0.25446069 -0.026585445 0.74672097 1.0166701e-39
0.25515121 -0.026585445 0.74672097 1.879912e-40
0.25510135 -0.026508506 0.74456 1.4783741e-39
0.25578988 -0.026508506 0.74456 6.7342467e-39
0.25647843 -0.026508506 0.74456 9.1309771e-39
0.25716695 -0.026508506 0.74456 7.8402411e-39
0.2578555 -0.026508506 0.74456 7.1033991e-39
0.25278828 -0.02591837 0.72798449 7.1034019e-39
0.25346148 -0.02591837 0.72798449 7.0108504e-39
0.25413468 -0.02591837 0.72798449 6.8275381e-39
0.25480789 -0.02591837 0.72798449 6.8275409e-39
0.25548109 -0.02591837 0.72798449 6.7353453e-39
0.25445989 -0.027350111 0.74875057 1.2014173e-39
0.25515231 -0.027350111 0.74875057 1.0166701e-39
0.25584471 -0.027350111 0.74875057 9.5795566e-41
0.25592083 -0.027284406 0.74695176 2.1237435e-39
0.25661156 -0.027284406 0.74695176 7.2867016e-39
0.25730231 -0.027284406 0.74695176 8.9458656e-39
0.25799304 -0.027284406 0.74695176 7.9324367e-39
0.2586838 -0.027284406 0.74695176 7.2870701e-39
0.25186306 -0.02649425 0.72532004 7.0112063e-39
0.25253379 -0.02649425 0.72532004 7.1956004e-39
0.25320452 -0.02649425 0.72532004 7.1956004e-39
0.25387529 -0.02649425 0.72532004 7.0108532e-39
0.25454602 -0.02649425 0.72532004 6.9186575e-39
0.25445989 -0.028042519 0.74875057 1.1092216e-39
0.25515231 -0.028042519 0.74875057 1.1088657e-39
0.25584471 -0.028042519 0.74875057 1.201783e-39
0.25592083 -0.027975149 0.74695176 2.6769173e-39
0.25661156 -0.027975149 0.74695176 7.3788972e-39
0.25730231 -0.027975149 0.74695176 8.3926918e-39
0.25799304 -0.027975149 0.74695176 8.116828e-39
0.2586838 -0.027975149 0.74695176 7.563657e-39
0.25186306 -0.02716499 0.72532004 7.1033991e-39
0.25253379 -0.02716499 0.72532004 7.3796287e-39
0.25320452 -0.02716499 0.72532004 7.1956004e-39
0.25387529 -0.02716499 0.72532004 7.1034047e-39
0.25454602 -0.02716499 0.72532004 7.0108532e-39
0.25445989 -0.028734928 0.74875057 1.1092216e-39
0.25515231 -0.028734928 0.74875057 1.2010641e-39
0.25584471 -0.028734928 0.74875057 1.2939786e-39
0.25592083 -0.028665895 0.74695176 2.5847202e-39
0.25661156 -0.028665895 0.74695176 7.1945059e-39
0.25730231 -0.028665895 0.74695176 8.2083005e-39
0.25799304 -0.028665895 0.74695176 8.0246323e-39
0.2586838 -0.028665895 0.74695176 7.563657e-39
0.25186306 -0.02783573 0.72532004 7.1033991e-39
0.25253379 -0.02783573 0.72532004 7.1034019e-39
0.25320452 -0.02783573 0.72532004 7.0112063e-39
0.25387529 -0.02783573 0.72532004 7.0108504e-39
0.25454602 -0.02783573 0.72532004 6.9186547e-39
0.25227511 -0.029414793 0.74843144 1.5694739e-39
0.25296721 -0.029414793 0.74843144 1.4779971e-39
0.25365934 -0.029414793 0.74843144 1.3858043e-39
0.25366393 -0.029335285 0.7464084 1.2014173e-39
0.25435418 -0.029335285 0.7464084 1.3854512e-39
0.2550444 -0.029335285 0.7464084 4.6421515e-40
0.25573465 -0.029335285 0.7464084 2.3081305e-39
0.25565252 -0.029246924 0.74416018 7.2866988e-39
0.25634068 -0.029246924 0.74416018 8.3004934e-39
0.25702885 -0.029246924 0.74416018 7.6562072e-39
0.25771701 -0.029246924 0.74416018 7.0108406e-39
0.25182724 -0.028502418 0.72521693 6.9190079e-39
0.25249791 -0.028502418 0.72521693 6.7342593e-39
0.25316852 -0.028502418 0.72521693 6.5502281e-39
0.25383919 -0.028502418 0.72521693 6.7342621e-39
0.25450984 -0.028502418 0.72521693 6.5502309e-39
0.25227511 -0.030106906 0.74843144 1.5694739e-39
0.25296721 -0.030106906 0.74843144 1.4779971e-39
0.25365934 -0.030106906 0.74843144 1.3858043e-39
0.25366393 -0.030025525 0.7464084 1.1092188e-39
0.25435418 -0.030025525 0.7464084 1.2003383e-39
0.2550444 -0.030025525 0.7464084 1.4776468e-39
0.25573465 -0.030025525 0.7464084 2.1240994e-39
0.25565252 -0.029935088 0.74416018 7.3788944e-39
0.25634068 -0.029935088 0.74416018 9.4990366e-39
0.25702885 -0.029935088 0.74416018 8.2083005e-39
0.25771701 -0.029935088 0.74416018 7.3785441e-39
0.25182724 -0.029173063 0.72521693 6.9182876e-39
0.25249791 -0.029173063 0.72521693 6.4580325e-39
0.25316852 -0.029173063 0.72521693 6.4580325e-39
0.25383919 -0.029173063 0.72521693 6.4580353e-39
0.25450984 -0.029173063 0.72521693 6.2732853e-39
0.25227511 -0.030799018 0.74843144 1.4772783e-39
0.25296721 -0.030799018 0.74843144 1.3858015e-39
0.25365934 -0.030799018 0.74843144 1.1092188e-39
0.25366393 -0.030715767 0.7464084 9.2482756e-40
0.25435418 -0.030715767 0.7464084 1.017026e-39
0.2550444 -0.030715767 0.7464084 1.0173889e-39
0.25573465 -0.030715767 0.7464084 1.7549568e-39
0.25565252 -0.03062325 0.74416018 7.2866988e-39
0.25634068 -0.03062325 0.74416018 9.4990366e-39
0.25702885 -0.03062325 0.74416018 8.3926918e-39
0.25771701 -0.03062325 0.74416018 7.2863484e-39
0.25182724 -0.029843709 0.72521693 6.826092e-39
0.25249791 -0.029843709 0.72521693 6.5502281e-39
0.25316852 -0.029843709 0.72521693 6.4580325e-39
0.25383919 -0.029843709 0.72521693 6.4580353e-39
0.25450984 -0.029843709 0.72521693 6.365481e-39
0.25399098 -0.031446502 0.74737078 8.3263053e-40
0.25468212 -0.031446502 0.74737078 8.322746e-40
0.25537324 -0.031446502 0.74737078 7.4116217e-40
0.25606439 -0.031446502 0.74737078 1.6627611e-39
0.25581345 -0.031331122 0.74462861 6.6413294e-39
0.25650206 -0.031331122 0.74462861 9.3150054e-39
0.25719064 -0.031331122 0.74462861 8.2083005e-39
0.25787926 -0.031331122 0.74462861 7.7469693e-39
0.25190607 -0.030523906 0.72544396 7.4714614e-39
0.25257695 -0.030523906 0.72544396 7.1955975e-39
0.2532478 -0.030523906 0.72544396 6.8264549e-39
0.25391865 -0.030523906 0.72544396 6.6413476e-39
0.2545895 -0.030523906 0.72544396 6.6413476e-39
0.25399098 -0.032137636 0.74737078 9.2482756e-40
0.25468212 -0.032137636 0.74737078 9.2447163e-40
0.25537324 -0.032137636 0.74737078 1.1095846e-39
0.25606439 -0.032137636 0.74737078 1.47873e-39
0.25581345 -0.032019719 0.74462861 6.3647411e-39
0.25650206 -0.032019719 0.74462861 8.5774404e-39
0.25719064 -0.032019719 0.74462861 8.0239107e-39
0.25787926 -0.032019719 0.74462861 7.7469693e-39
0.25190607 -0.031194761 0.72544396 8.0246351e-39
0.25257695 -0.031194761 0.72544396 7.6565757e-39
0.2532478 -0.031194761 0.72544396 7.5643801e-39
0.25391865 -0.031194761 0.72544396 7.3789126e-39
0.2545895 -0.031194761 0.72544396 6.9179345e-39
0.25183803 -0.032728609 0.7450906 1.0163015e-39
0.25252706 -0.032728609 0.7450906 1.0163043e-39
0.25321606 -0.032728609 0.7450906 1.0163071e-39
0.25363851 -0.032694243 0.74430823 1.6613206e-39
0.25432679 -0.032694243 0.74430823 1.6620423e-39
0.25501511 -0.032694243 0.74430823 1.9393508e-39
0.25426471 -0.032510292 0.74012047 5.8112114e-39
0.25494915 -0.032510292 0.74012047 8.3004962e-39
0.25563356 -0.032510292 0.74012047 7.6547708e-39
0.256318 -0.032510292 0.74012047 7.562578e-39
0.25700241 -0.032510292 0.74012047 7.3792657e-39
0.24956462 -0.031485576 0.71679205 7.1034019e-39
0.25022745 -0.031485576 0.71679205 7.1034019e-39
0.25089031 -0.031485576 0.71679205 7.1945214e-39
0.25155318 -0.031485576 0.71679205 6.9179345e-39
0.25221604 -0.031485576 0.71679205 6.8257416e-39
0.25183803 -0.033417631 0.7450906 1.0163015e-39
0.25252706 -0.033417631 0.7450906 9.2410729e-40
0.25321606 -0.033417631 0.7450906 1.0163071e-39
0.25363851 -0.033382542 0.74430823 1.9379061e-39
0.25432679 -0.033382542 0.74430823 2.1226603e-39
0.25501511 -0.033382542 0.74430823 2.0315479e-39
0.25426471 -0.033194721 0.74012047 5.8112114e-39
0.25494915 -0.033194721 0.74012047 7.5629311e-39
0.25563356 -0.033194721 0.74012047 7.3785441e-39
0.256318 -0.033194721 0.74012047 7.0094042e-39
0.25700241 -0.033194721 0.74012047 6.7338963e-39
0.24956462 -0.032148428 0.71679205 6.4580325e-39
0.25022745 -0.032148428 0.71679205 6.2736413e-39
0.25089031 -0.032148428 0.71679205 6.5491519e-39
0.25155318 -0.032148428 0.71679205 6.7335432e-39
0.25221604 -0.032148428 0.71679205 6.8257416e-39
0.25183803 -0.034106657 0.7450906 1.1074167e-39
0.25252706 -0.034106657 0.7450906 1.1074196e-39
0.25321606 -0.034106657 0.7450906 1.0163071e-39
0.25363851 -0.034070842 0.74430823 1.5691236e-39
0.25432679 -0.034070842 0.74430823 1.8464335e-39
0.25501511 -0.034070842 0.74430823 2.1237435e-39
0.25426471 -0.033879146 0.74012047 5.6268201e-39
0.25494915 -0.033879146 0.74012047 7.2863456e-39
0.25563356 -0.033879146 0.74012047 7.1019558e-39
0.256318 -0.033879146 0.74012047 6.9172086e-39
0.25700241 -0.033879146 0.74012047 6.6417007e-39
0.24956462 -0.032811284 0.71679205 6.3658369e-39
0.25022745 -0.032811284 0.71679205 6.3658369e-39
0.25089031 -0.032811284 0.71679205 6.7335432e-39
0.25155318 -0.032811284 0.71679205 6.9179345e-39
0.25221604 -0.032811284 0.71679205 6.733546e-39
0.25179428 -0.034885079 0.74700493 1.0152211e-39
0.25248507 -0.034885079 0.74700493 8.3190886e-40
0.25317585 -0.034885079 0.74700493 8.3191166e-40
0.25386664 -0.034885079 0.74700493 9.2375136e-40
0.25346854 -0.034735851 0.74380952 9.2447443e-40
0.25415638 -0.034735851 0.74380952 1.4772909e-39
0.25484422 -0.034735851 0.74380952 1.8471552e-39
0.25355124 -0.034466591 0.73804373 5.6268201e-39
0.25423378 -0.034466591 0.73804373 7.2863456e-39
0.25491625 -0.034466591 0.73804373 7.2870673e-39
0.25559878 -0.034466591 0.73804373 6.9182876e-39
0.25628129 -0.034466591 0.73804373 6.4580297e-39
0.25179428 -0.03557587 0.74700493 1.1074167e-39
0.25248507 -0.03557587 0.74700493 1.0163015e-39
0.25317585 -0.03557587 0.74700493 8.3191166e-40
0.25386664 -0.03557587 0.74700493 5.5604784e-40
0.25346854 -0.035423692 0.74380952 7.3972584e-40
0.25415638 -0.035423692 0.74380952 1.869122e-40
0.25484422 -0.035423692 0.74380952 1.938632e-39
0.25355124 -0.035149097 0.73804373 5.9037671e-39
0.25423378 -0.035149097 0.73804373 7.931715e-39
0.25491625 -0.035149097 0.73804373 7.3792629e-39
0.25559878 -0.035149097 0.73804373 6.5491463e-39
0.25628129 -0.035149097 0.73804373 6.4580325e-39
0.25179428 -0.036266666 0.74700493 9.2302549e-40
0.25248507 -0.036266666 0.74700493 8.3190886e-40
0.25317585 -0.036266666 0.74700493 8.3191166e-40
0.25386664 -0.036266666 0.74700493 5.5604784e-40
0.25346854 -0.03611153 0.74380952 9.2447723e-40
0.25415638 -0.03611153 0.74380952 1.0166729e-39
0.25484422 -0.03611153 0.74380952 2.3996101e-39
0.25355124 -0.035831604 0.73804373 6.5491365e-39
0.25423378 -0.035831604 0.73804373 8.3004962e-39
0.25491625 -0.035831604 0.73804373 7.0108406e-39
0.25559878 -0.035831604 0.73804373 6.4569507e-39
0.25628129 -0.035831604 0.73804373 6.5502281e-39
0.25201875 -0.036889199 0.74562526 8.3190886e-40
0.25270826 -0.036889199 0.74562526 8.3191166e-40
0.25339776 -0.036889199 0.74562526 5.5604784e-40
0.25279215 -0.036701169 0.74182463 1.1088685e-39
0.25347814 -0.036701169 0.74182463 2.2152161e-39
0.25416416 -0.036701169 0.74182463 3.4134019e-39
0.25485015 -0.036701169 0.74182463 7.1945059e-39
0.25335866 -0.036388423 0.73550326 8.3004962e-39
0.25403878 -0.036388423 0.73550326 7.2870673e-39
0.25471896 -0.036388423 0.73550326 6.9182876e-39
0.25539911 -0.036388423 0.73550326 6.5502281e-39
0.25607929 -0.036388423 0.73550326 6.4580353e-39
0.25201875 -0.037578717 0.74562526 1.0152211e-39
0.25270826 -0.037578717 0.74562526 9.2410729e-40
0.25339776 -0.037578717 0.74562526 8.3155573e-40
0.25279215 -0.03738717 0.74182463 1.2014201e-39
0.25347814 -0.03738717 0.74182463 1.8464335e-39
0.25416416 -0.03738717 0.74182463 3.5055989e-39
0.25485015 -0.03738717 0.74182463 7.1945059e-39
0.25335866 -0.037068579 0.73550326 8.2083005e-39
0.25403878 -0.037068579 0.73550326 7.1948717e-39
0.25471896 -0.037068579 0.73550326 6.7338963e-39
0.25539911 -0.037068579 0.73550326 6.4580325e-39
0.25607929 -0.037068579 0.73550326 6.7342621e-39
0.25201875 -0.038268235 0.74562526 1.0152211e-39
0.25270826 -0.038268235 0.74562526 1.1074196e-39
0.25339776 -0.038268235 0.74562526 9.2375136e-40
0.25279215 -0.038073175 0.74182463 1.0159512e-39
0.25347814 -0.038073175 0.74182463 8.322802e-40
0.25416416 -0.038073175 0.74182463 3.1371752e-39
0.25485015 -0.038073175 0.74182463 6.4565808e-39
0.25335866 -0.037748739 0.73550326 7.5629311e-39
0.25403878 -0.037748739 0.73550326 7.0108406e-39
0.25471896 -0.037748739 0.73550326 6.5491463e-39
0.25539911 -0.037748739 0.73550326 6.2736413e-39
0.25607929 -0.037748739 0.73550326 6.5502309e-39
0.25236419 -0.039011158 0.74664736 1.0152211e-39
0.25305468 -0.039011158 0.74664736 1.1074167e-39
0.25374514 -0.039011158 0.74664736 9.2410729e-40
0.25260863 -0.038731039 0.74128604 8.3155573e-40
0.25329411 -0.038731039 0.74128604 3.7130065e-40
0.25397962 -0.038731039 0.74128604 2.8605855e-39
0.25466514 -0.038731039 0.74128604 5.7193717e-39
0.25342101 -0.038438354 0.73568428 7.0097545e-39
0.25410131 -0.038438354 0.73568428 7.1948689e-39
0.25478166 -0.038438354 0.73568428 6.6417007e-39
0.25546196 -0.038438354 0.73568428 6.1810855e-39
0.25614232 -0.038438354 0.73568428 6.365481e-39
0.25236419 -0.039701622 0.74664736 1.0148582e-39
0.25305468 -0.039701622 0.74664736 1.1992522e-39
0.25374514 -0.039701622 0.74664736 1.0152239e-39
0.25260863 -0.03941654 0.74128604 1.0163071e-39
0.25329411 -0.03941654 0.74128604 3.7130065e-40
0.25397962 -0.03941654 0.74128604 2.2152161e-39
0.25466514 -0.03941654 0.74128604 5.7193717e-39
0.25342101 -0.039118677 0.73568428 7.0097545e-39
0.25410131 -0.039118677 0.73568428 6.7338907e-39
0.25478166 -0.039118677 0.73568428 6.4569507e-39
0.25546196 -0.039118677 0.73568428 6.5491491e-39
0.25614232 -0.039118677 0.73568428 6.5491519e-39
0.25236419 -0.040392082 0.74664736 9.2338142e-40
0.25305468 -0.040392082 0.74664736 1.1077727e-39
0.25374514 -0.040392082 0.74664736 8.3190886e-40
0.25260863 -0.040102046 0.74128604 9.2375136e-40
0.25329411 -0.040102046 0.74128604 1.0166701e-39
0.25397962 -0.040102046 0.74128604 2.1226603e-39
0.25466514 -0.040102046 0.74128604 5.6268173e-39
0.25342101 -0.039799005 0.73568428 6.9175589e-39
0.25410131 -0.039799005 0.73568428 6.6416951e-39
0.25478166 -0.039799005 0.73568428 6.4569507e-39
0.25546196 -0.039799005 0.73568428 6.2736413e-39
0.25614232 -0.039799005 0.73568428 6.5502309e-39
0.25045404 -0.040771589 0.74099588 7.3899156e-40
0.25113928 -0.040771589 0.74099588 7.3899156e-40
0.2518245 -0.040771589 0.74099588 9.2410449e-40
0.2516807 -0.040637728 0.73856306 1.3847295e-39
0.25236368 -0.040637728 0.73856306 1.3854512e-39
0.25304669 -0.040637728 0.73856306 2.2152161e-39
0.25372967 -0.040637728 0.73856306 5.9959599e-39
0.25220671 -0.040285368 0.7321592 7.3788972e-39
0.25288376 -0.040285368 0.7321592 6.8264451e-39
0.25356084 -0.040285368 0.7321592 6.4569507e-39
0.25423792 -0.040285368 0.7321592 6.5502281e-39
0.25491497 -0.040285368 0.7321592 6.4580353e-39
0.25045404 -0.041456822 0.74099588 6.4715326e-40
0.25113928 -0.041456822 0.74099588 5.546003e-40
0.2518245 -0.041456822 0.74099588 7.3971323e-40
0.2516807 -0.041320715 0.73856306 1.6616765e-39
0.25236368 -0.041320715 0.73856306 1.754591e-39
0.25304669 -0.041320715 0.73856306 2.3074089e-39
0.25372967 -0.041320715 0.73856306 6.0885115e-39
0.25220671 -0.040962435 0.7321592 7.5629283e-39
0.25288376 -0.040962435 0.7321592 6.8264451e-39
0.25356084 -0.040962435 0.7321592 6.5491463e-39
0.25423792 -0.040962435 0.7321592 6.3658369e-39
0.25491497 -0.040962435 0.7321592 6.2732853e-39
0.25045404 -0.04214206 0.74099588 6.4715326e-40
0.25113928 -0.04214206 0.74099588 5.546003e-40
0.2518245 -0.04214206 0.74099588 6.475176e-40
0.2516807 -0.042003702 0.73856306 1.5691208e-39
0.25236368 -0.042003702 0.73856306 1.8467867e-39
0.25304669 -0.042003702 0.73856306 2.1230162e-39
0.25372967 -0.042003702 0.73856306 5.8115645e-39
0.25220671 -0.041639499 0.7321592 7.2867016e-39
0.25288376 -0.041639499 0.7321592 6.6416951e-39
0.25356084 -0.041639499 0.7321592 6.5491463e-39
0.25423792 -0.041639499 0.7321592 6.2736413e-39
0.25491497 -0.041639499 0.7321592 6.1810883e-39
0.24997316 -0.042745069 0.73957318 9.2338142e-40
0.25065708 -0.042745069 0.73957318 7.3899156e-40
0.25134099 -0.042745069 0.73957318 6.475176e-40
0.25143987 -0.042645838 0.73785627 1.2925339e-39
0.25212219 -0.042645838 0.73785627 1.569841e-39
0.25280452 -0.042645838 0.73785627 1.8467895e-39
0.25348684 -0.042645838 0.73785627 5.4427862e-39
0.2523407 -0.042339042 0.73254812 7.0097545e-39
0.25301811 -0.042339042 0.73254812 6.6416951e-39
0.25369555 -0.042339042 0.73254812 6.5491463e-39
0.25437295 -0.042339042 0.73254812 6.3658369e-39
0.25505039 -0.042339042 0.73254812 6.365481e-39
0.24997316 -0.043428991 0.73957318 1.015577e-39
0.25065708 -0.043428991 0.73957318 7.3899436e-40
0.25134099 -0.043428991 0.73957318 7.3971603e-40
0.25143987 -0.04332817 0.73785627 1.2925339e-39
0.25212219 -0.04332817 0.73785627 1.5698438e-39
0.25280452 -0.04332817 0.73785627 2.1226603e-39
0.25348684 -0.04332817 0.73785627 5.3505905e-39
0.2523407 -0.043016467 0.73254812 6.9175617e-39
0.25301811 -0.043016467 0.73254812 6.6416979e-39
0.25369555 -0.043016467 0.73254812 6.4569507e-39
0.25437295 -0.043016467 0.73254812 6.3658369e-39
0.25505039 -0.043016467 0.73254812 6.4580353e-39
0.24997316 -0.044112913 0.73957318 9.2302549e-40
0.25065708 -0.044112913 0.73957318 7.3899436e-40
0.25134099 -0.044112913 0.73957318 8.3191166e-40
0.25143987 -0.044010505 0.73785627 1.3847295e-39
0.25212219 -0.044010505 0.73785627 1.8453517e-39
0.25280452 -0.044010505 0.73785627 2.2152161e-39
0.25348684 -0.044010505 0.73785627 5.4417072e-39
0.2523407 -0.043693893 0.73254812 6.7331719e-39
0.25301811 -0.043693893 0.73254812 6.5495023e-39
0.25369555 -0.043693893 0.73254812 5.9963313e-39
0.25437295 -0.043693893 0.73254812 6.0888899e-39
0.25505039 -0.043693893 0.73254812 6.365481e-39
0.24949911 -0.04471188 0.73817068 7.3899436e-40
0.25018176 -0.04471188 0.73817068 6.464428e-40
0.25086436 -0.04471188 0.73817068 1.0152267e-39
0.25154701 -0.04471188 0.73817068 1.5680446e-39
0.25171903 -0.044621371 0.73667639 1.8453545e-39
0.25240028 -0.044621371 0.73667639 2.1219442e-39
0.2530815 -0.044621371 0.73667639 5.44171e-39
0.25184187 -0.044283602 0.73110002 6.8246472e-39
0.25251794 -0.044283602 0.73110002 6.4565864e-39
0.25319403 -0.044283602 0.73110002 5.9037769e-39
0.2538701 -0.044283602 0.73110002 5.7204675e-39
0.25454623 -0.044283602 0.73110002 6.1810883e-39
0.24949911 -0.045394506 0.73817068 6.4679873e-40
0.25018176 -0.045394506 0.73817068 6.464428e-40
0.25086436 -0.045394506 0.73817068 1.1074224e-39
0.25154701 -0.045394506 0.73817068 1.7524358e-39
0.25171903 -0.045302615 0.73667639 2.0301017e-39
0.25240028 -0.045302615 0.73667639 2.0297458e-39
0.2530815 -0.045302615 0.73667639 5.4417072e-39
0.25184187 -0.04495969 0.73110002 7.0090385e-39
0.25251794 -0.04495969 0.73110002 6.5487834e-39
0.25319403 -0.04495969 0.73110002 6.0885269e-39
0.2538701 -0.04495969 0.73110002 5.8126631e-39
0.25454623 -0.04495969 0.73110002 5.7208304e-39
0.24949911 -0.046077132 0.73817068 9.2302549e-40
0.25018176 -0.046077132 0.73817068 1.1996166e-39
0.25086436 -0.046077132 0.73817068 1.5680418e-39
0.25154701 -0.046077132 0.73817068 1.7524358e-39
0.25171903 -0.045983855 0.73667639 1.4769279e-39
0.25240028 -0.045983855 0.73667639 2.4907239e-39
0.2530815 -0.045983855 0.73667639 5.5339028e-39
0.25184187 -0.045635775 0.73110002 7.0090385e-39
0.25251794 -0.045635775 0.73110002 6.7331747e-39
0.25319403 -0.045635775 0.73110002 6.1807226e-39
0.2538701 -0.045635775 0.73110002 5.8126631e-39
0.25454623 -0.045635775 0.73110002 5.7208304e-39
0.2502138 -0.046893694 0.74028516 1.0152211e-39
0.25089839 -0.046893694 0.74028516 1.2918122e-39
0.25158295 -0.046893694 0.74028516 1.5680418e-39
0.25226754 -0.046893694 0.74028516 1.3840134e-39
0.25295213 -0.046893694 0.74028516 1.4769307e-39
0.25366992 -0.046899833 0.74038208 2.3066928e-39
0.25435457 -0.046899833 0.74038208 6.0870766e-39
0.25336182 -0.046591364 0.73551244 7.2852652e-39
0.25404197 -0.046591364 0.73551244 7.0094014e-39
0.25472215 -0.046591364 0.73551244 6.1807226e-39
0.2554023 -0.046591364 0.73551244 6.0888899e-39
0.25608248 -0.046591364 0.73551244 5.8133848e-39
0.2502138 -0.047578275 0.74028516 1.0152211e-39
0.25089839 -0.047578275 0.74028516 1.1996166e-39
0.25158295 -0.047578275 0.74028516 1.5680418e-39
0.25226754 -0.047578275 0.74028516 1.7524386e-39
0.25295213 -0.047578275 0.74028516 1.6613234e-39
0.25366992 -0.047584504 0.74038208 2.675118e-39
0.25435457 -0.047584504 0.74038208 6.0870794e-39
0.25336182 -0.047271531 0.73551244 7.7466035e-39
0.25404197 -0.047271531 0.73551244 7.1019558e-39
0.25472215 -0.047271531 0.73551244 6.6417007e-39
0.2554023 -0.047271531 0.73551244 6.2736413e-39
0.25608248 -0.047271531 0.73551244 5.9055804e-39
0.2502138 -0.048262853 0.74028516 7.3899436e-40
0.25089839 -0.048262853 0.74028516 1.1074196e-39
0.25158295 -0.048262853 0.74028516 1.5680418e-39
0.25226754 -0.048262853 0.74028516 2.2134168e-39
0.25295213 -0.048262853 0.74028516 2.0297458e-39
0.25366992 -0.048269171 0.74038208 2.1219442e-39
0.25435457 -0.048269171 0.74038208 5.5339056e-39
0.25336182 -0.047951695 0.73551244 7.2852652e-39
0.25404197 -0.047951695 0.73551244 7.1941528e-39
0.25472215 -0.047951695 0.73551244 6.6417007e-39
0.2554023 -0.047951695 0.73551244 6.1810855e-39
0.25608248 -0.047951695 0.73551244 5.9055804e-39
0.24978364 -0.048863284 0.73901248 7.3899436e-40
0.25046706 -0.048863284 0.73901248 1.0152239e-39
0.25115046 -0.048863284 0.73901248 1.6602374e-39
0.25161463 -0.048820749 0.73836917 2.5822007e-39
0.25229743 -0.048820749 0.73836917 2.2144958e-39
0.25298026 -0.048820749 0.73836917 2.0297486e-39
0.25366306 -0.048820749 0.73836917 5.1651231e-39
0.25225899 -0.048420176 0.73231089 7.0090385e-39
0.25293618 -0.048420176 0.73231089 7.1019558e-39
0.25361338 -0.048420176 0.73231089 6.6417007e-39
0.25429058 -0.048420176 0.73231089 6.2736413e-39
0.25496781 -0.048420176 0.73231089 5.9055804e-39
0.24978364 -0.049546685 0.73901248 7.3899436e-40
0.25046706 -0.049546685 0.73901248 1.0152239e-39
0.25115046 -0.049546685 0.73901248 1.9371844e-39
0.25161463 -0.049503557 0.73836917 2.7669507e-39
0.25229743 -0.049503557 0.73836917 2.3066928e-39
0.25298026 -0.049503557 0.73836917 2.4907267e-39
0.25366306 -0.049503557 0.73836917 5.44171e-39
0.25225899 -0.049097382 0.73231089 7.0090385e-39
0.25293618 -0.049097382 0.73231089 6.5487834e-39
0.25361338 -0.049097382 0.73231089 6.1807226e-39
0.25429058 -0.049097382 0.73231089 5.8126631e-39
0.25496781 -0.049097382 0.73231089 5.5367993e-39
0.24978364 -0.05023009 0.73901248 7.3899436e-40
0.25046706 -0.05023009 0.73901248 1.0152239e-39
0.25115046 -0.05023009 0.73901248 2.0293801e-39
0.25161463 -0.050186362 0.73836917 3.3197657e-39
0.25229743 -0.050186362 0.73836917 3.1360934e-39
0.25298026 -0.050186362 0.73836917 3.3204874e-39
0.25366306 -0.050186362 0.73836917 6.2714706e-39
0.25225899 -0.049774587 0.73231089 6.9168429e-39
