# .PCD v0.7 - Point Cloud Data file format
VERSION 0.7
FIELDS x y z rgb
SIZE 4 4 4 4
TYPE F F F F
COUNT 1 1 1 1
WIDTH 945
HEIGHT 1
VIEWPOINT 0 0 0 1 0 0 0
POINTS 945
DATA ascii
-0.26397717 -0.0026845136 0.64510179 2.3050349e-38
-0.26338062 -0.0026845136 0.64510179 2.323402e-38
-0.26278406 -0.0026845136 0.64510179 2.323402e-38
-0.26882845 -0.0027525094 0.66144156 2.2956356e-38
-0.26790822 -0.0027493432 0.66068065 2.2034756e-38
-0.26729724 -0.0027493432 0.66068065 2.1481582e-38
-0.26668629 -0.0027493432 0.66068065 2.1480859e-38
-0.26607531 -0.0027493432 0.66068065 2.1388663e-38
-0.26546437 -0.0027493432 0.66068065 2.1388663e-38
-0.26488665 -0.0027496885 0.66076362 2.1480859e-38
-0.26427561 -0.0027496885 0.66076362 2.166525e-38
-0.26366457 -0.0027496885 0.66076362 2.2033314e-38
-0.26353472 -0.0027547183 0.66197234 2.2033314e-38
-0.26292256 -0.0027547183 0.66197234 2.1940759e-38
-0.26231042 -0.0027547183 0.66197234 2.1848562e-38
-0.26241109 -0.002762222 0.6637755 2.1664531e-38
-0.26179728 -0.002762222 0.6637755 2.1664531e-38
-0.25785744 -0.0027594732 0.66311496 2.148014e-38
-0.25724423 -0.0027594732 0.66311496 2.1572335e-38
-0.25663102 -0.0027594732 0.66311496 2.1572335e-38
-0.2560178 -0.0027594732 0.66311496 2.148014e-38
-0.25565529 -0.0027621817 0.66376585 2.148014e-38
-0.25504145 -0.0027621817 0.66376585 2.1572335e-38
-0.25442764 -0.0027621817 0.66376585 2.1572335e-38
-0.25400412 -0.0027642527 0.66426349 2.1572335e-38
-0.25338984 -0.0027642527 0.66426349 2.1480137e-38
-0.25277555 -0.0027642527 0.66426349 2.1572333e-38
-0.25237188 -0.0027665615 0.66481829 2.1664528e-38
-0.2515375 -0.0027641484 0.66423845 2.1941115e-38
-0.25092328 -0.0027641484 0.66423845 2.2217702e-38
-0.25030899 -0.0027641484 0.66423845 2.2033311e-38
-0.24952973 -0.0027623216 0.66379946 2.1664528e-38
-0.24891588 -0.0027623216 0.66379946 2.1480137e-38
-0.24830204 -0.0027623216 0.66379946 2.1480137e-38
-0.24768817 -0.0027623216 0.66379946 2.1480137e-38
-0.24707434 -0.0027623216 0.66379946 2.1480137e-38
-0.24648792 -0.0027626292 0.66387337 2.1480137e-38
-0.24587402 -0.0027626292 0.66387337 2.1480137e-38
-0.24526009 -0.0027626292 0.66387337 2.1480137e-38
-0.24500257 -0.0027666537 0.66484046 2.1572333e-38
-0.24438775 -0.0027666537 0.66484046 2.1572333e-38
-0.24396154 -0.0027687943 0.66535485 2.1387941e-38
-0.24334624 -0.0027687943 0.66535485 2.1387225e-38
-0.24273098 -0.0027687943 0.66535485 2.1571256e-38
-0.24230808 -0.0027709946 0.6658836 2.1755648e-38
-0.24169232 -0.0027709946 0.6658836 2.1847843e-38
-0.24107653 -0.0027709946 0.6658836 2.1940039e-38
-0.24056742 -0.0027722237 0.66617894 2.2032595e-38
-0.23987351 -0.0027713242 0.66596282 2.1940042e-38
-0.23925766 -0.0027713242 0.66596282 2.1847846e-38
-0.23864181 -0.0027713242 0.66596282 2.1847846e-38
-0.23802596 -0.0027713242 0.66596282 2.1940042e-38
-0.23741011 -0.0027713242 0.66596282 2.1847846e-38
-0.236909 -0.002772667 0.66628551 2.1663452e-38
-0.23619874 -0.0027715629 0.66602015 2.1755648e-38
-0.23558284 -0.0027715629 0.66602015 2.1940039e-38
-0.23496693 -0.0027715629 0.66602015 2.1940039e-38
-0.23435104 -0.0027715629 0.66602015 2.1847843e-38
-0.23373513 -0.0027715629 0.66602015 2.1940039e-38
-0.2333557 -0.0027743741 0.66669571 2.2033314e-38
-0.23256056 -0.0027722451 0.66618413 2.1848562e-38
-0.23194452 -0.0027722451 0.66618413 2.1664528e-38
-0.23132846 -0.0027722451 0.66618413 2.1664528e-38
-0.23071241 -0.0027722451 0.66618413 2.1941115e-38
-0.23009636 -0.0027722451 0.66618413 2.2125506e-38
-0.22960673 -0.0027737725 0.66655117 2.2217702e-38
-0.22899033 -0.0027737725 0.66655117 2.2125506e-38
-0.22837394 -0.0027737725 0.66655117 2.2125506e-38
-0.22775754 -0.0027737725 0.66655117 2.2033311e-38
-0.22714116 -0.0027737725 0.66655117 2.1848918e-38
-0.22685516 -0.0027778184 0.66752338 2.1848918e-38
-0.22623788 -0.0027778184 0.66752338 2.1941115e-38
-0.22562058 -0.0027778184 0.66752338 2.1941115e-38
-0.2251278 -0.0027793555 0.66789275 2.1941115e-38
-0.22438839 -0.0027778482 0.66753054 2.1941115e-38
-0.22377111 -0.0027778482 0.66753054 2.2033311e-38
-0.2231538 -0.0027778482 0.66753054 2.2125506e-38
-0.2225365 -0.0027778482 0.66753054 2.2125506e-38
-0.22191919 -0.0027778482 0.66753054 2.1941115e-38
-0.22176877 -0.0027837083 0.66893876 2.1664884e-38
-0.22109036 -0.0027829558 0.66875792 2.1663805e-38
-0.22047195 -0.0027829558 0.66875792 2.157161e-38
-0.21985349 -0.0027829558 0.66875792 2.1756001e-38
-0.21923508 -0.0027829558 0.66875792 2.1848196e-38
-0.21861663 -0.0027829558 0.66875792 2.1663805e-38
-0.21781734 -0.0027806468 0.66820306 2.1663805e-38
-0.2171994 -0.0027806468 0.66820306 2.138722e-38
-0.21658149 -0.0027806468 0.66820306 2.1202827e-38
-0.21596356 -0.0027806468 0.66820306 2.1110631e-38
-0.21534565 -0.0027806468 0.66820306 2.1295023e-38
-0.21497451 -0.0027838426 0.66897106 2.1663449e-38
-0.21435589 -0.0027838426 0.66897106 2.1755645e-38
-0.21373725 -0.0027838426 0.66897106 2.1848199e-38
-0.21353693 -0.0027893067 0.67028409 2.1755645e-38
-0.21291707 -0.0027893067 0.67028409 2.1663452e-38
-0.21229723 -0.0027893067 0.67028409 2.1663449e-38
-0.21190354 -0.0027922869 0.67100024 2.1755645e-38
-0.21128304 -0.0027922869 0.67100024 2.1848199e-38
-0.21066253 -0.0027922869 0.67100024 2.1940395e-38
-0.21019068 -0.002794263 0.67147511 2.1848199e-38
-0.20938432 -0.002791791 0.67088109 2.1940395e-38
-0.20876394 -0.002791791 0.67088109 2.2216623e-38
-0.20814353 -0.002791791 0.67088109 2.2401014e-38
-0.20741299 -0.0027903093 0.67052501 2.2401014e-38
-0.20679292 -0.0027903093 0.67052501 2.2308819e-38
-0.20617285 -0.0027903093 0.67052501 2.2032592e-38
-0.20555277 -0.0027903093 0.67052501 2.1755645e-38
-0.20493272 -0.0027903093 0.67052501 2.1295746e-38
-0.20422223 -0.0027890746 0.6702283 2.1387941e-38
-0.20360245 -0.0027890746 0.6702283 2.1480137e-38
-0.20298263 -0.0027890746 0.6702283 2.1664531e-38
-0.20236285 -0.0027890746 0.6702283 2.1848562e-38
-0.20174305 -0.0027890746 0.6702283 2.1940759e-38
-0.20122422 -0.0027904743 0.67056471 2.2033311e-38
-0.2006041 -0.0027904743 0.67056471 2.1941115e-38
-0.19998401 -0.0027904743 0.67056471 2.1664528e-38
-0.19936407 -0.0027904769 0.67056531 2.1848918e-38
-0.19874397 -0.0027904769 0.67056531 2.1941115e-38
-0.19812386 -0.0027904769 0.67056531 2.1848918e-38
-0.19772667 -0.0027936262 0.67132211 2.1848918e-38
-0.19684577 -0.0027899402 0.67043632 2.1664528e-38
-0.19622579 -0.0027899402 0.67043632 2.1664528e-38
-0.1956058 -0.0027899402 0.67043632 2.1848918e-38
-0.19498582 -0.0027899402 0.67043632 2.1941115e-38
-0.19436583 -0.0027899402 0.67043632 2.2032592e-38
-0.1938473 -0.002791401 0.67078739 2.2032592e-38
-0.1931241 -0.0027899148 0.67043024 2.2308821e-38
-0.19250414 -0.0027899148 0.67043024 2.2401017e-38
-0.19188415 -0.0027899148 0.67043024 2.2308821e-38
-0.19126417 -0.0027899148 0.67043024 2.1940039e-38
-0.19064417 -0.0027899148 0.67043024 2.1847843e-38
-0.19020177 -0.0027925221 0.67105675 2.1940039e-38
-0.18941115 -0.0027900171 0.6704548 2.1847843e-38
-0.18879116 -0.0027900171 0.6704548 2.1848199e-38
-0.18817116 -0.0027900171 0.6704548 2.1940395e-38
-0.18755116 -0.0027900171 0.6704548 2.1940395e-38
-0.18693116 -0.0027900171 0.6704548 2.2216623e-38
-0.18653184 -0.0027933219 0.67124897 2.2401014e-38
-0.1859111 -0.0027933219 0.67124897 2.2308819e-38
-0.18529035 -0.0027933219 0.67124897 2.2032592e-38
-0.18466963 -0.0027933219 0.67124897 2.2123707e-38
-0.18404888 -0.0027933219 0.67124897 2.2031512e-38
-0.18389188 -0.0028003838 0.67294598 2.1754929e-38
-0.18304825 -0.002797002 0.67213333 2.1385786e-38
-0.18242671 -0.002797002 0.67213333 2.1109559e-38
-0.18180513 -0.002797002 0.67213333 1.8804667e-38
-0.18118359 -0.002797002 0.67213333 1.2258422e-38
-0.18056202 -0.002797002 0.67213333 1.1982195e-38
-0.18016319 -0.0028004639 0.67296523 1.6868203e-38
-0.17915142 -0.0027943894 0.67150551 2.2031158e-38
-0.17853045 -0.0027943894 0.67150551 2.1938244e-38
-0.17790946 -0.0027943894 0.67150551 2.2214831e-38
-0.17711993 -0.0027917325 0.67086703 2.2399222e-38
-0.17649953 -0.0027917325 0.67086703 2.2215551e-38
-0.17587917 -0.0027917325 0.67086703 2.2308105e-38
-0.17525868 -0.0027917312 0.67086673 2.2308105e-38
-0.17463832 -0.0027917312 0.67086673 2.2215551e-38
-0.17401792 -0.0027917312 0.67086673 2.2032595e-38
-0.17339754 -0.0027917312 0.67086673 2.1940039e-38
-0.17277715 -0.0027917312 0.67086673 2.1940039e-38
-0.17234799 -0.0027948322 0.67161191 2.2032595e-38
-0.17172691 -0.0027948322 0.67161191 2.1940039e-38
-0.17128152 -0.0027977014 0.67230141 2.1847843e-38
-0.1706598 -0.0027977014 0.67230141 2.1847843e-38
-0.17003809 -0.0027977014 0.67230141 2.2032595e-38
-0.16964605 -0.0028014944 0.67321289 2.2032595e-38
-0.16902351 -0.0028014944 0.67321289 2.2216626e-38
-0.16840094 -0.0028014944 0.67321289 2.2216626e-38
-0.16799569 -0.0028051229 0.67408478 2.2308821e-38
-0.16737233 -0.0028051229 0.67408478 2.2216626e-38
-0.16674897 -0.0028051229 0.67408478 2.1940039e-38
-0.16623338 -0.0028069424 0.67452204 2.1940039e-38
-0.1656096 -0.0028069424 0.67452204 2.2216626e-38
-0.16498584 -0.0028069424 0.67452204 2.2308821e-38
-0.16436592 -0.0028070081 0.67453784 2.2032595e-38
-0.16374214 -0.0028070081 0.67453784 2.1940039e-38
-0.16311836 -0.0028070081 0.67453784 2.1847843e-38
-0.16269335 -0.0028104417 0.67536294 2.2032595e-38
-0.16206881 -0.0028104417 0.67536294 2.2308824e-38
-0.16159303 -0.0028130314 0.67598528 2.240102e-38
-0.16082251 -0.0028104903 0.67537463 2.2493216e-38
-0.16019794 -0.0028104903 0.67537463 2.2493216e-38
-0.15957339 -0.0028104903 0.67537463 2.2584332e-38
-0.15871748 -0.0028063995 0.67439157 2.2676528e-38
-0.15809384 -0.0028063995 0.67439157 2.2768723e-38
-0.1574702 -0.0028063995 0.67439157 2.2768723e-38
-0.15684655 -0.0028063995 0.67439157 2.2400301e-38
-0.15622291 -0.0028063995 0.67439157 2.2308824e-38
-0.15571302 -0.0028084512 0.67488462 2.240102e-38
-0.15508892 -0.0028084512 0.67488462 2.2308824e-38
-0.15446481 -0.0028084512 0.67488462 2.221627e-38
-0.15406896 -0.0028126179 0.67588592 2.2308824e-38
-0.15344393 -0.0028126179 0.67588592 2.240102e-38
-0.15281892 -0.0028126179 0.67588592 2.2493213e-38
-0.15242732 -0.0028169318 0.67692256 2.2493213e-38
-0.15178107 -0.0028165558 0.6768322 2.2585408e-38
-0.15115516 -0.0028165558 0.6768322 2.2861995e-38
-0.15052927 -0.0028165558 0.6768322 2.2954191e-38
-0.14990336 -0.0028165558 0.6768322 2.2861995e-38
-0.14927746 -0.0028165558 0.6768322 2.2585408e-38
-0.14853808 -0.0028144058 0.67631555 2.2401017e-38
-0.14791267 -0.0028144058 0.67631555 2.2401017e-38
-0.14728723 -0.0028144058 0.67631555 2.2401017e-38
-0.14660889 -0.0028133902 0.67607147 2.2308821e-38
-0.14598368 -0.0028133902 0.67607147 2.2308821e-38
-0.14535849 -0.0028133902 0.67607147 2.2308821e-38
-0.14460251 -0.0028108479 0.67546058 2.2493213e-38
-0.14397788 -0.0028108479 0.67546058 2.2493213e-38
-0.14335325 -0.0028108479 0.67546058 2.2585408e-38
-0.14272861 -0.0028108479 0.67546058 2.2861995e-38
-0.14210398 -0.0028108479 0.67546058 2.2861995e-38
-0.1416942 -0.0028151167 0.67648637 2.2677964e-38
-0.14106862 -0.0028151167 0.67648637 2.2585408e-38
-0.14044304 -0.0028151167 0.67648637 2.2585408e-38
-0.13983943 -0.002815559 0.67659265 2.2676525e-38
-0.13921376 -0.002815559 0.67659265 2.2676525e-38
-0.13858807 -0.002815559 0.67659265 2.2769079e-38
-0.13821907 -0.0028207975 0.6778515 2.2585408e-38
-0.13759224 -0.0028207975 0.6778515 2.2585408e-38
-0.13696539 -0.0028207975 0.6778515 2.2493213e-38
-0.13656679 -0.00282552 0.67898631 2.2493213e-38
-0.1359389 -0.00282552 0.67898631 2.2585408e-38
-0.13536651 -0.002826679 0.67926484 2.2585408e-38
-0.13473837 -0.002826679 0.67926484 2.2677964e-38
-0.13411021 -0.002826679 0.67926484 2.2954191e-38
-0.13370097 -0.0028313145 0.68037879 2.3046387e-38
-0.13300005 -0.0028297885 0.68001205 2.2677964e-38
-0.13237122 -0.0028297885 0.68001205 2.2585408e-38
-0.13174237 -0.0028297885 0.68001205 2.2861995e-38
-0.13096155 -0.0028265084 0.67922384 2.2954191e-38
-0.13033344 -0.0028265084 0.67922384 2.3046389e-38
-0.12970532 -0.0028265084 0.67922384 2.2954194e-38
-0.12907721 -0.0028265084 0.67922384 2.2954191e-38
-0.1284491 -0.0028265084 0.67922384 2.2954191e-38
-0.12801555 -0.0028308104 0.68025762 2.2861995e-38
-0.12738647 -0.0028308104 0.68025762 2.2677964e-38
-0.1267574 -0.0028308104 0.68025762 2.2677964e-38
-0.1265327 -0.0028398859 0.68243855 2.2861995e-38
-0.12590162 -0.0028398859 0.68243855 2.2861995e-38
-0.125577 -0.0028468338 0.68410814 2.2677964e-38
-0.12494438 -0.0028468338 0.68410814 2.2677608e-38
-0.12431175 -0.0028468338 0.68410814 2.2677608e-38
-0.12394807 -0.0028530245 0.68559581 2.2585411e-38
-0.12331407 -0.0028530245 0.68559581 2.2308824e-38
-0.12268006 -0.0028530245 0.68559581 2.221627e-38
-0.12232172 -0.0028594686 0.68714434 2.2032239e-38
-0.12168628 -0.0028594686 0.68714434 2.221627e-38
-0.12105084 -0.0028594686 0.68714434 2.240102e-38
-0.12075013 -0.0028674172 0.68905443 2.2585411e-38
-0.12011293 -0.0028674172 0.68905443 2.2585411e-38
-0.11977445 -0.0028745865 0.69077724 2.2585414e-38
-0.11913565 -0.0028745865 0.69077724 2.2586134e-38
-0.11849685 -0.0028745865 0.69077724 2.2309547e-38
-0.11866318 -0.0028942237 0.69549614 2.1111724e-38
-0.11802001 -0.0028942237 0.69549614 1.95444e-38
-0.1200961 -0.0029612735 0.71160859 1.7977076e-38
-0.12778409 -0.0031682004 0.76133412 1.8162545e-38
-0.26517031 -0.0032810722 0.64510179 2.2867037e-38
-0.26457372 -0.0032810722 0.64510179 2.3050349e-38
-0.26397717 -0.0032810722 0.64510179 2.3050349e-38
-0.26338062 -0.0032810722 0.64510179 2.323402e-38
-0.26278406 -0.0032810722 0.64510179 2.323402e-38
-0.26882845 -0.0033641784 0.66144156 2.2956356e-38
-0.26790822 -0.0033603082 0.66068065 2.2034756e-38
-0.26729724 -0.0033603082 0.66068065 2.175745e-38
-0.26668629 -0.0033603082 0.66068065 2.1573054e-38
-0.26607531 -0.0033603082 0.66068065 2.148014e-38
-0.26546437 -0.0033603082 0.66068065 2.148014e-38
-0.26488665 -0.0033607304 0.66076362 2.1572335e-38
-0.26427561 -0.0033607304 0.66076362 2.1664531e-38
-0.26366457 -0.0033607304 0.66076362 2.1848562e-38
-0.26353472 -0.003366878 0.66197234 2.2033314e-38
-0.26292256 -0.003366878 0.66197234 2.1940759e-38
-0.26231042 -0.003366878 0.66197234 2.1848562e-38
-0.26241109 -0.0033760492 0.6637755 2.1664531e-38
-0.26179728 -0.0033760492 0.6637755 2.1664531e-38
-0.25785744 -0.0033726895 0.66311496 2.1572335e-38
-0.25724423 -0.0033726895 0.66311496 2.1664531e-38
-0.25663102 -0.0033726895 0.66311496 2.148014e-38
-0.2560178 -0.0033726895 0.66311496 2.1387944e-38
-0.25565529 -0.0033760001 0.66376585 2.129539e-38
-0.25504145 -0.0033760001 0.66376585 2.148014e-38
-0.25442764 -0.0033760001 0.66376585 2.1572335e-38
-0.25400412 -0.003378531 0.66426349 2.1664531e-38
-0.25338984 -0.003378531 0.66426349 2.1664531e-38
-0.25277555 -0.003378531 0.66426349 2.1572335e-38
-0.25237188 -0.0033813529 0.66481829 2.1664528e-38
-0.2515375 -0.0033784038 0.66423845 2.1941115e-38
-0.25092328 -0.0033784038 0.66423845 2.2033311e-38
-0.25030899 -0.0033784038 0.66423845 2.2033311e-38
-0.24952973 -0.003376171 0.66379946 2.1848918e-38
-0.24891588 -0.003376171 0.66379946 2.1480137e-38
-0.24830204 -0.003376171 0.66379946 2.1203549e-38
-0.24768817 -0.003376171 0.66379946 2.1110994e-38
-0.24707434 -0.003376171 0.66379946 2.1203549e-38
-0.24648792 -0.003376547 0.66387337 2.1295746e-38
-0.24587402 -0.003376547 0.66387337 2.1387941e-38
-0.24526009 -0.003376547 0.66387337 2.1663452e-38
-0.24500257 -0.0033814656 0.66484046 2.1755648e-38
-0.24438775 -0.0033814656 0.66484046 2.1663452e-38
-0.24396154 -0.0033840819 0.66535485 2.129467e-38
-0.24334624 -0.0033840819 0.66535485 2.1110278e-38
-0.24273098 -0.0033840819 0.66535485 2.129467e-38
-0.24230808 -0.0033867711 0.6658836 2.1663455e-38
-0.24169232 -0.0033867711 0.6658836 2.1755651e-38
-0.24107653 -0.0033867711 0.6658836 2.1755651e-38
-0.24056742 -0.0033882733 0.66617894 2.1940042e-38
-0.23987351 -0.0033871741 0.66596282 2.1940042e-38
-0.23925766 -0.0033871741 0.66596282 2.1755651e-38
-0.23864181 -0.0033871741 0.66596282 2.1847846e-38
-0.23802596 -0.0033871741 0.66596282 2.2032239e-38
-0.23741011 -0.0033871741 0.66596282 2.2032239e-38
-0.236909 -0.0033888153 0.66628551 2.1755648e-38
-0.23619874 -0.0033874656 0.66602015 2.1755648e-38
-0.23558284 -0.0033874656 0.66602015 2.2032595e-38
-0.23496693 -0.0033874656 0.66602015 2.2032595e-38
-0.23435104 -0.0033874656 0.66602015 2.2032595e-38
-0.23373513 -0.0033874656 0.66602015 2.2032595e-38
-0.2333557 -0.0033909017 0.66669571 2.2216626e-38
-0.23256056 -0.0033882996 0.66618413 2.2032595e-38
-0.23194452 -0.0033882996 0.66618413 2.1940395e-38
-0.23132846 -0.0033882996 0.66618413 2.1848199e-38
-0.23071241 -0.0033882996 0.66618413 2.1940395e-38
-0.23009636 -0.0033882996 0.66618413 2.2216623e-38
-0.23024596 -0.0033996047 0.66840684 2.2308819e-38
-0.22962785 -0.0033996047 0.66840684 2.2308819e-38
-0.22900975 -0.0033996047 0.66840684 2.2216623e-38
-0.22839162 -0.0033996047 0.66840684 2.2216623e-38
-0.22777352 -0.0033996047 0.66840684 2.2032592e-38
-0.22779503 -0.0034091775 0.67028898 2.1848199e-38
-0.22689234 -0.0034049328 0.6694544 2.1940395e-38
-0.22627325 -0.0034049328 0.6694544 2.2032592e-38
-0.22565418 -0.0034049328 0.6694544 2.2216623e-38
-0.22503509 -0.0034049328 0.6694544 2.2216623e-38
-0.22441602 -0.0034049328 0.6694544 2.2216623e-38
-0.22395033 -0.0034072665 0.66991323 2.2032592e-38
-0.22333083 -0.0034072665 0.66991323 2.2032592e-38
-0.22271132 -0.0034072665 0.66991323 2.2216623e-38
-0.22213188 -0.0034078809 0.67003405 2.1940392e-38
-0.22151226 -0.0034078809 0.67003405 2.1756001e-38
-0.22089265 -0.0034078809 0.67003405 2.157161e-38
-0.22027302 -0.0034078809 0.67003405 2.1848196e-38
-0.21965341 -0.0034078809 0.67003405 2.2032589e-38
-0.219072 -0.0034084753 0.67015094 2.1940392e-38
-0.21833505 -0.0034066462 0.66979128 2.1848196e-38
-0.21771565 -0.0034066462 0.66979128 2.1202827e-38
-0.21709627 -0.0034066462 0.66979128 2.1018436e-38
-0.21647687 -0.0034066462 0.66979128 2.0649653e-38
-0.21585749 -0.0034066462 0.66979128 2.1110631e-38
-0.21556655 -0.0034118446 0.67081338 2.1663449e-38
-0.21494623 -0.0034118446 0.67081338 2.1848199e-38
-0.21432588 -0.0034118446 0.67081338 2.2216623e-38
-0.21408422 -0.0034178903 0.67200202 2.2032592e-38
-0.2133704 -0.0034164111 0.67171121 2.1847843e-38
-0.21274924 -0.0034164111 0.67171121 2.1663449e-38
-0.21212807 -0.0034164111 0.67171121 2.1755645e-38
-0.21150692 -0.0034164111 0.67171121 2.1940395e-38
-0.21088573 -0.0034164111 0.67171121 2.1940395e-38
-0.2105051 -0.0034203192 0.67247957 2.1755645e-38
-0.20988321 -0.0034203192 0.67247957 2.1755645e-38
-0.20926134 -0.0034203192 0.67247957 2.1848199e-38
-0.20846421 -0.003417446 0.6719147 2.2032592e-38
-0.20784286 -0.003417446 0.6719147 2.2032592e-38
-0.20722149 -0.003417446 0.6719147 2.2216623e-38
-0.20633093 -0.0034129927 0.6710391 2.1940395e-38
-0.20571038 -0.0034129927 0.6710391 2.1663449e-38
-0.20508984 -0.0034129927 0.6710391 2.1387223e-38
-0.20446929 -0.0034129927 0.6710391 2.1387223e-38
-0.20384875 -0.0034129927 0.6710391 2.1480137e-38
-0.20350127 -0.0034175785 0.67194074 2.1572335e-38
-0.20287989 -0.0034175785 0.67194074 2.1848562e-38
-0.20225851 -0.0034175785 0.67194074 2.1940759e-38
-0.20214713 -0.0034262226 0.67364025 2.1941115e-38
-0.20152417 -0.0034262226 0.67364025 2.1664528e-38
-0.20090124 -0.0034262226 0.67364025 2.1664528e-38
-0.20029227 -0.0034264619 0.67368734 2.1941115e-38
-0.19966929 -0.0034264619 0.67368734 2.2033311e-38
-0.19904628 -0.0034264619 0.67368734 2.1941115e-38
-0.19857246 -0.0034290375 0.67419374 2.1941115e-38
-0.19739279 -0.0034194028 0.67229939 2.1848918e-38
-0.19677109 -0.0034194028 0.67229939 2.1572333e-38
-0.19614936 -0.0034194028 0.67229939 2.1664528e-38
-0.19552767 -0.0034194028 0.67229939 2.1941115e-38
-0.19490595 -0.0034194028 0.67229939 2.2216626e-38
-0.19429097 -0.003419521 0.67232263 2.2216626e-38
-0.19348772 -0.0034163164 0.67169255 2.2401017e-38
-0.19286658 -0.0034163164 0.67169255 2.2401017e-38
-0.19224542 -0.0034163164 0.67169255 2.2216626e-38
-0.19162428 -0.0034163164 0.67169255 2.1755648e-38
-0.19100313 -0.0034163164 0.67169255 2.1663452e-38
-0.19070114 -0.0034220433 0.67281854 2.1847843e-38
-0.19007894 -0.0034220433 0.67281854 2.1755648e-38
-0.18945676 -0.0034220433 0.67281854 2.1848199e-38
-0.18883458 -0.0034220433 0.67281854 2.1755645e-38
-0.18821238 -0.0034220433 0.67281854 2.1663449e-38
-0.18779637 -0.0034258042 0.673558 2.1848199e-38
-0.18705626 -0.0034236587 0.67313617 2.2216623e-38
-0.18643379 -0.0034236587 0.67313617 2.2308819e-38
-0.1858113 -0.0034236587 0.67313617 2.2216623e-38
-0.18518883 -0.0034236587 0.67313617 2.212371e-38
-0.18456633 -0.0034236587 0.67313617 2.193896e-38
-0.18428676 -0.003430041 0.67439103 2.1754929e-38
-0.18359548 -0.0034287781 0.67414272 2.1385786e-38
-0.18297209 -0.0034287781 0.67414272 2.0832971e-38
-0.18234865 -0.0034287781 0.67414272 1.8066744e-38
-0.18172525 -0.0034287781 0.67414272 1.1612333e-38
-0.18110183 -0.0034287781 0.67414272 1.2073312e-38
-0.18050569 -0.0034292962 0.67424458 1.7420658e-38
-0.17988217 -0.0034292962 0.67424458 2.2399222e-38
-0.17925867 -0.0034292962 0.67424458 2.1938244e-38
-0.17863517 -0.0034292962 0.67424458 2.203044e-38
-0.17801166 -0.0034292962 0.67424458 2.203044e-38
-0.17748079 -0.0034310874 0.67459673 2.2031158e-38
-0.17682344 -0.0034304366 0.67446882 2.2123354e-38
-0.1761997 -0.0034304366 0.67446882 2.2215551e-38
-0.175576 -0.0034304366 0.67446882 2.2215551e-38
-0.17495227 -0.0034304366 0.67446882 2.2032595e-38
-0.17432857 -0.0034304366 0.67446882 2.1940039e-38
-0.17395183 -0.0034353144 0.67542785 2.1940039e-38
-0.17332724 -0.0034353144 0.67542785 2.2032595e-38
-0.17270263 -0.0034353144 0.67542785 2.2032595e-38
-0.17221572 -0.003438063 0.67596823 2.1847843e-38
-0.1715906 -0.003438063 0.67596823 2.1847843e-38
-0.17096551 -0.003438063 0.67596823 2.1940039e-38
-0.17044465 -0.0034401675 0.67638201 2.2032595e-38
-0.16981919 -0.0034401675 0.67638201 2.2216626e-38
-0.16919369 -0.0034401675 0.67638201 2.2216626e-38
-0.16866244 -0.0034420907 0.67676014 2.2032595e-38
-0.16790123 -0.0034393177 0.67621493 2.1847843e-38
-0.16727591 -0.0034393177 0.67621493 2.1755648e-38
-0.16665058 -0.0034393177 0.67621493 2.1755648e-38
-0.16602525 -0.0034393177 0.67621493 2.1940039e-38
-0.16539991 -0.0034393177 0.67621493 2.2308821e-38
-0.16488588 -0.0034416409 0.67667168 2.2216626e-38
-0.16426013 -0.0034416409 0.67667168 2.2216626e-38
-0.16400617 -0.0034494607 0.67820919 2.2216626e-38
-0.163379 -0.0034494607 0.67820919 2.2308821e-38
-0.16275182 -0.0034494607 0.67820919 2.2308824e-38
-0.16257662 -0.0034590769 0.68009984 2.2308824e-38
-0.16170056 -0.0034537984 0.67906201 2.2308824e-38
-0.1610726 -0.0034537984 0.67906201 2.2308824e-38
-0.16044463 -0.0034537984 0.67906201 2.2308105e-38
-0.1595943 -0.0034489927 0.67811716 2.2400301e-38
-0.15896721 -0.0034489927 0.67811716 2.2676528e-38
-0.15834011 -0.0034489927 0.67811716 2.2676528e-38
-0.15745701 -0.0034433939 0.67701638 2.2400301e-38
-0.15683094 -0.0034433939 0.67701638 2.2308105e-38
-0.15620486 -0.0034433939 0.67701638 2.2308105e-38
-0.15557879 -0.0034433939 0.67701638 2.2400301e-38
-0.15495272 -0.0034433939 0.67701638 2.2400301e-38
-0.1545426 -0.0034482121 0.67796367 2.2308824e-38
-0.15388775 -0.0034475871 0.67784083 2.2308824e-38
-0.15326092 -0.0034475871 0.67784083 2.2308824e-38
-0.15254189 -0.0034455049 0.6774314 2.240102e-38
-0.15191545 -0.0034455049 0.6774314 2.2493216e-38
-0.15128899 -0.0034455049 0.6774314 2.2677608e-38
-0.15066253 -0.0034455049 0.6774314 2.2861639e-38
-0.15003607 -0.0034455049 0.6774314 2.2861639e-38
-0.14956485 -0.0034490845 0.67813522 2.2677964e-38
-0.14893773 -0.0034490845 0.67813522 2.2585408e-38
-0.14831063 -0.0034490845 0.67813522 2.2585408e-38
-0.14784476 -0.00345285 0.67887557 2.2493213e-38
-0.14721696 -0.00345285 0.67887557 2.2308821e-38
-0.14658917 -0.00345285 0.67887557 2.2308821e-38
-0.14613935 -0.0034570599 0.6797033 2.2493213e-38
-0.14549717 -0.0034567364 0.6796397 2.2401017e-38
-0.14486869 -0.0034567364 0.6796397 2.2493213e-38
-0.14424019 -0.0034567364 0.6796397 2.2677964e-38
-0.14361168 -0.0034567364 0.6796397 2.2861995e-38
-0.14298318 -0.0034567364 0.6796397 2.2861995e-38
-0.14240523 -0.0034579637 0.67988098 2.2677964e-38
-0.1417765 -0.0034579637 0.67988098 2.2585408e-38
-0.14114779 -0.0034579637 0.67988098 2.2585408e-38
-0.14054538 -0.0034586112 0.68000829 2.2584329e-38
-0.13991654 -0.0034586112 0.68000829 2.2676525e-38
-0.13928771 -0.0034586112 0.68000829 2.2769079e-38
-0.1387022 -0.003459692 0.68022078 2.2676525e-38
-0.13807316 -0.003459692 0.68022078 2.2676525e-38
-0.13768978 -0.0034658755 0.68143654 2.2493213e-38
-0.13695638 -0.003463265 0.68092328 2.2585408e-38
-0.1363267 -0.003463265 0.68092328 2.2585408e-38
-0.13569702 -0.003463265 0.68092328 2.2677964e-38
-0.13506733 -0.003463265 0.68092328 2.2677964e-38
-0.13443765 -0.003463265 0.68092328 2.2677964e-38
-0.13402356 -0.0034688453 0.68202043 2.2677964e-38
-0.13338153 -0.0034685505 0.68196249 2.2585408e-38
-0.13275088 -0.0034685505 0.68196249 2.2585408e-38
-0.13212024 -0.0034685505 0.68196249 2.2861995e-38
-0.13134174 -0.0034646504 0.68119568 2.2954191e-38
-0.13071181 -0.0034646504 0.68119568 2.2954194e-38
-0.13008188 -0.0034646504 0.68119568 2.2954191e-38
-0.12945193 -0.0034646504 0.68119568 2.2954191e-38
-0.128822 -0.0034646504 0.68119568 2.2954191e-38
-0.12846768 -0.0034720993 0.68266022 2.2677964e-38
-0.12783639 -0.0034720993 0.68266022 2.2585408e-38
-0.1272051 -0.0034720993 0.68266022 2.2585408e-38
-0.12679474 -0.0034781597 0.68385178 2.2677964e-38
-0.12616235 -0.0034781597 0.68385178 2.2677964e-38
-0.125577 -0.0034794635 0.68410814 2.2861995e-38
-0.12494438 -0.0034794635 0.68410814 2.2954194e-38
-0.12431175 -0.0034794635 0.68410814 2.2954194e-38
-0.12394807 -0.00348703 0.68559581 2.2585411e-38
-0.12331407 -0.00348703 0.68559581 2.2308824e-38
-0.12268006 -0.00348703 0.68559581 2.2032239e-38
-0.12232172 -0.003494906 0.68714434 2.1940042e-38
-0.12168628 -0.003494906 0.68714434 2.221627e-38
-0.12105084 -0.003494906 0.68714434 2.2308824e-38
-0.12075013 -0.0035046211 0.68905443 2.2585411e-38
-0.12011293 -0.0035046211 0.68905443 2.2585411e-38
-0.11977445 -0.0035133834 0.69077724 2.2861642e-38
-0.11913565 -0.0035133834 0.69077724 2.267833e-38
-0.11849685 -0.0035133834 0.69077724 2.2309547e-38
-0.11866318 -0.0035373843 0.69549614 2.1202841e-38
-0.11802001 -0.0035373843 0.69549614 1.9635877e-38
-0.1200961 -0.0036193344 0.71160859 1.7700488e-38
-0.12778409 -0.0038722451 0.76133412 1.8253661e-38
-0.2682814 -0.003914319 0.65120542 2.2867037e-38
-0.26767921 -0.003914319 0.65120542 2.2774842e-38
-0.267077 -0.003914319 0.65120542 2.3050349e-38
-0.26647481 -0.003914319 0.65120542 2.3050349e-38
-0.2658726 -0.003914319 0.65120542 2.323402e-38
-0.27010947 -0.0039857244 0.66308475 2.3234018e-38
-0.26949626 -0.0039857244 0.66308475 2.2772321e-38
-0.26888308 -0.0039857244 0.66308475 2.2034756e-38
-0.26507533 -0.003983791 0.66276312 2.1848918e-38
-0.26446244 -0.003983791 0.66276312 2.1848918e-38
-0.26412421 -0.0039879382 0.66345304 2.1941115e-38
-0.26341495 -0.0039864895 0.66321206 2.1848918e-38
-0.26280165 -0.0039864895 0.66321206 2.1848918e-38
-0.26218835 -0.0039864895 0.66321206 2.1664528e-38
-0.26157504 -0.0039864895 0.66321206 2.1480137e-38
-0.26096174 -0.0039864895 0.66321206 2.1387944e-38
-0.26071924 -0.0039921673 0.66415668 2.1572335e-38
-0.26010507 -0.0039921673 0.66415668 2.1848562e-38
-0.25953066 -0.0039927792 0.66425848 2.1664531e-38
-0.25891638 -0.0039927792 0.66425848 2.1572335e-38
-0.25830212 -0.0039927792 0.66425848 2.1848562e-38
-0.25799596 -0.0039975536 0.66505277 2.1940759e-38
-0.25738096 -0.0039975536 0.66505277 2.1572335e-38
-0.25676596 -0.0039975536 0.66505277 2.129539e-38
-0.2562739 -0.0039994726 0.66537195 2.129539e-38
-0.25565857 -0.0039994726 0.66537195 2.1387944e-38
-0.25504327 -0.0039994726 0.66537195 2.1572335e-38
-0.25473145 -0.0040042428 0.66616559 2.1664531e-38
-0.25397211 -0.0040019848 0.66578996 2.1664531e-38
-0.25335643 -0.0040019848 0.66578996 2.1572335e-38
-0.25274074 -0.0040019848 0.66578996 2.1664528e-38
-0.25207126 -0.0040011313 0.66564792 2.1848918e-38
-0.25145572 -0.0040011313 0.66564792 2.1664528e-38
-0.25084013 -0.0040011313 0.66564792 2.1848918e-38
-0.24993514 -0.0039965026 0.66487789 2.1664528e-38
-0.24932027 -0.0039965026 0.66487789 2.1572333e-38
-0.24870543 -0.0039965026 0.66487789 2.1203549e-38
-0.24809058 -0.0039965026 0.66487789 2.0926963e-38
-0.24747574 -0.0039965026 0.66487789 2.1110994e-38
-0.2471782 -0.0040016398 0.6657325 2.1295746e-38
-0.24656257 -0.0040016398 0.6657325 2.1387941e-38
-0.24596539 -0.0040019401 0.66578251 2.1663452e-38
-0.24534972 -0.0040019401 0.66578251 2.1847843e-38
-0.24473403 -0.0040019401 0.66578251 2.1663452e-38
-0.2445641 -0.0040092478 0.66699821 2.129467e-38
-0.24394728 -0.0040092478 0.66699821 2.1202474e-38
-0.24333049 -0.0040092478 0.66699821 2.1571256e-38
-0.24272421 -0.0040094219 0.66702718 2.1755651e-38
-0.24210739 -0.0040094219 0.66702718 2.1847846e-38
-0.24149054 -0.0040094219 0.66702718 2.1755651e-38
-0.2411579 -0.0040141521 0.66781414 2.1755651e-38
-0.24038857 -0.0040116194 0.66739279 2.1847846e-38
-0.23977141 -0.0040116194 0.66739279 2.1940042e-38
-0.23915422 -0.0040116194 0.66739279 2.2032239e-38
-0.23853706 -0.0040116194 0.66739279 2.2032239e-38
-0.23791988 -0.0040116194 0.66739279 2.1940042e-38
-0.23745255 -0.0040141526 0.6678142 2.1847843e-38
-0.23683499 -0.0040141526 0.6678142 2.1847843e-38
-0.23621744 -0.0040141526 0.6678142 2.2032595e-38
-0.2358271 -0.0040180241 0.66845834 2.2032595e-38
-0.23520896 -0.0040180241 0.66845834 2.1940039e-38
-0.23471607 -0.0040201698 0.66881531 2.2032595e-38
-0.23384447 -0.0040158229 0.66809213 2.2216626e-38
-0.23322664 -0.0040158229 0.66809213 2.2216626e-38
-0.23260882 -0.0040158229 0.66809213 2.2032592e-38
-0.23199099 -0.0040158229 0.66809213 2.1940395e-38
-0.23137319 -0.0040158229 0.66809213 2.1848199e-38
-0.2309676 -0.0040195165 0.6687066 2.1848199e-38
-0.23024596 -0.0040177149 0.66840684 2.1940395e-38
-0.22962785 -0.0040177149 0.66840684 2.2032592e-38
-0.22900975 -0.0040177149 0.66840684 2.1940395e-38
-0.22839162 -0.0040177149 0.66840684 2.1940395e-38
-0.22777352 -0.0040177149 0.66840684 2.1940395e-38
-0.22779503 -0.0040290281 0.67028898 2.1848199e-38
-0.22689234 -0.0040240115 0.6694544 2.1940395e-38
-0.22627325 -0.0040240115 0.6694544 2.2032592e-38
-0.22565418 -0.0040240115 0.6694544 2.2308819e-38
-0.22503509 -0.0040240115 0.6694544 2.2216623e-38
-0.22441602 -0.0040240115 0.6694544 2.2032592e-38
-0.22395033 -0.0040267697 0.66991323 2.2032592e-38
-0.22333083 -0.0040267697 0.66991323 2.2032592e-38
-0.22271132 -0.0040267697 0.66991323 2.2032592e-38
-0.22213188 -0.0040274956 0.67003405 2.1940392e-38
-0.22151226 -0.0040274956 0.67003405 2.1663805e-38
-0.22089265 -0.0040274956 0.67003405 2.1663805e-38
-0.22027302 -0.0040274956 0.67003405 2.1848196e-38
-0.21965341 -0.0040274956 0.67003405 2.2032589e-38
-0.219072 -0.0040281983 0.67015094 2.1940392e-38
-0.21833505 -0.0040260362 0.66979128 2.1663805e-38
-0.21771565 -0.0040260362 0.66979128 2.1018436e-38
-0.21709627 -0.0040260362 0.66979128 2.074185e-38
-0.21647687 -0.0040260362 0.66979128 2.0557458e-38
-0.21585749 -0.0040260362 0.66979128 2.1110631e-38
-0.21556655 -0.0040321802 0.67081338 2.1571254e-38
-0.21494623 -0.0040321802 0.67081338 2.1940395e-38
-0.21432588 -0.0040321802 0.67081338 2.2308819e-38
-0.21408422 -0.0040393248 0.67200202 2.2216623e-38
-0.2133704 -0.0040375767 0.67171121 2.2032592e-38
-0.21274924 -0.0040375767 0.67171121 2.1755645e-38
-0.21212807 -0.0040375767 0.67171121 2.1755645e-38
-0.21150692 -0.0040375767 0.67171121 2.1940395e-38
-0.21088573 -0.0040375767 0.67171121 2.1848199e-38
-0.2105051 -0.0040421956 0.67247957 2.1663449e-38
-0.20988321 -0.0040421956 0.67247957 2.1663449e-38
-0.20926134 -0.0040421956 0.67247957 2.1663449e-38
-0.20846421 -0.0040388 0.6719147 2.1663449e-38
-0.20784286 -0.0040388 0.6719147 2.1756001e-38
-0.20722149 -0.0040388 0.6719147 2.1848196e-38
-0.20633093 -0.0040335371 0.6710391 2.1848196e-38
-0.20571038 -0.0040335371 0.6710391 2.1756001e-38
-0.20508984 -0.0040335371 0.6710391 2.157161e-38
-0.20446929 -0.0040335371 0.6710391 2.1571254e-38
-0.20384875 -0.0040335371 0.6710391 2.1387941e-38
-0.20350127 -0.0040389565 0.67194074 2.1572333e-38
-0.20287989 -0.0040389565 0.67194074 2.1941115e-38
-0.20225851 -0.0040389565 0.67194074 2.1941115e-38
-0.20214713 -0.0040491722 0.67364025 2.1848918e-38
-0.20152417 -0.0040491722 0.67364025 2.1664528e-38
-0.20090124 -0.0040491722 0.67364025 2.1664528e-38
-0.20029227 -0.0040494553 0.67368734 2.2033311e-38
-0.19966929 -0.0040494553 0.67368734 2.2033311e-38
-0.19904628 -0.0040494553 0.67368734 2.1941115e-38
-0.19857246 -0.0040524993 0.67419374 2.2033311e-38
-0.19739279 -0.0040411125 0.67229939 2.1941115e-38
-0.19677109 -0.0040411125 0.67229939 2.1664528e-38
-0.19614936 -0.0040411125 0.67229939 2.1664528e-38
-0.19552767 -0.0040411125 0.67229939 2.1848918e-38
-0.19490595 -0.0040411125 0.67229939 2.1940039e-38
-0.19429097 -0.0040412522 0.67232263 2.2032595e-38
-0.19348772 -0.0040374645 0.67169255 2.2216626e-38
-0.19286658 -0.0040374645 0.67169255 2.2216626e-38
-0.19224542 -0.0040374645 0.67169255 2.1940039e-38
-0.19162428 -0.0040374645 0.67169255 2.1663452e-38
-0.19100313 -0.0040374645 0.67169255 2.1571256e-38
-0.19070114 -0.0040442329 0.67281854 2.1663452e-38
-0.19007894 -0.0040442329 0.67281854 2.1663452e-38
-0.18945676 -0.0040442329 0.67281854 2.1755645e-38
-0.18883458 -0.0040442329 0.67281854 2.1755645e-38
-0.18821238 -0.0040442329 0.67281854 2.1571254e-38
-0.18779637 -0.0040486776 0.673558 2.1571254e-38
-0.18705626 -0.0040461421 0.67313617 2.1848199e-38
-0.18643379 -0.0040461421 0.67313617 2.2032592e-38
-0.1858113 -0.0040461421 0.67313617 2.2032592e-38
-0.18518883 -0.0040461421 0.67313617 2.212371e-38
-0.18456633 -0.0040461421 0.67313617 2.193896e-38
-0.18428676 -0.0040536849 0.67439103 2.1570538e-38
-0.18359548 -0.0040521924 0.67414272 2.1478341e-38
-0.18297209 -0.0040521924 0.67414272 2.1017364e-38
-0.18234865 -0.0040521924 0.67414272 1.7606126e-38
-0.18172525 -0.0040521924 0.67414272 1.1335746e-38
-0.18110183 -0.0040521924 0.67414272 1.1612333e-38
-0.18050569 -0.0040528048 0.67424458 1.8066027e-38
-0.17988217 -0.0040528048 0.67424458 2.2583613e-38
-0.17925867 -0.0040528048 0.67424458 2.1938244e-38
-0.17863517 -0.0040528048 0.67424458 2.203044e-38
-0.17801166 -0.0040528048 0.67424458 2.1938244e-38
-0.17748079 -0.0040549212 0.67459673 2.1938963e-38
-0.17682344 -0.0040541524 0.67446882 2.2031158e-38
-0.1761997 -0.0040541524 0.67446882 2.212371e-38
-0.175576 -0.0040541524 0.67446882 2.2308103e-38
-0.17495227 -0.0040541524 0.67446882 2.2032595e-38
-0.17432857 -0.0040541524 0.67446882 2.1847843e-38
-0.17395183 -0.0040599173 0.67542785 2.1940039e-38
-0.17332724 -0.0040599173 0.67542785 2.2032595e-38
-0.17270263 -0.0040599173 0.67542785 2.2216626e-38
-0.17221572 -0.0040631653 0.67596823 2.2032595e-38
-0.1715906 -0.0040631653 0.67596823 2.2032595e-38
-0.17096551 -0.0040631653 0.67596823 2.2032595e-38
-0.17044465 -0.0040656524 0.67638201 2.2032595e-38
-0.16981919 -0.0040656524 0.67638201 2.2032595e-38
-0.16919369 -0.0040656524 0.67638201 2.2032595e-38
-0.16866244 -0.0040679253 0.67676014 2.1940039e-38
-0.16790123 -0.0040646484 0.67621493 2.1755648e-38
-0.16727591 -0.0040646484 0.67621493 2.1755648e-38
-0.16665058 -0.0040646484 0.67621493 2.1940039e-38
-0.16602525 -0.0040646484 0.67621493 2.2032595e-38
-0.16539991 -0.0040646484 0.67621493 2.2032595e-38
-0.16488588 -0.0040673935 0.67667168 2.2216626e-38
-0.16426013 -0.0040673935 0.67667168 2.2216626e-38
-0.16400617 -0.0040766355 0.67820919 2.2308821e-38
-0.163379 -0.0040766355 0.67820919 2.2308821e-38
-0.16275182 -0.0040766355 0.67820919 2.2308824e-38
-0.16257662 -0.0040879999 0.68009984 2.221627e-38
-0.16170056 -0.0040817615 0.67906201 2.1940042e-38
-0.1610726 -0.0040817615 0.67906201 2.1940039e-38
-0.16044463 -0.0040817615 0.67906201 2.212371e-38
-0.1595943 -0.0040760823 0.67811716 2.2215907e-38
-0.15896721 -0.0040760823 0.67811716 2.2308103e-38
-0.15834011 -0.0040760823 0.67811716 2.2584329e-38
-0.15745701 -0.0040694657 0.67701638 2.2584329e-38
-0.15683094 -0.0040694657 0.67701638 2.2215907e-38
-0.15620486 -0.0040694657 0.67701638 2.2215551e-38
-0.15557879 -0.0040694657 0.67701638 2.2584332e-38
-0.15495272 -0.0040694657 0.67701638 2.2584332e-38
-0.1545426 -0.0040751598 0.67796367 2.2308824e-38
-0.15388775 -0.0040744212 0.67784083 2.221627e-38
-0.15326092 -0.0040744212 0.67784083 2.221627e-38
-0.15254189 -0.0040719602 0.6774314 2.221627e-38
-0.15191545 -0.0040719602 0.6774314 2.2308824e-38
-0.15128899 -0.0040719602 0.6774314 2.2493216e-38
-0.15066253 -0.0040719602 0.6774314 2.2585411e-38
-0.15003607 -0.0040719602 0.6774314 2.2677608e-38
-0.14956485 -0.0040761908 0.67813522 2.2677964e-38
-0.14893773 -0.0040761908 0.67813522 2.2677964e-38
-0.14831063 -0.0040761908 0.67813522 2.2585408e-38
-0.14784476 -0.0040806411 0.67887557 2.2493213e-38
-0.14721696 -0.0040806411 0.67887557 2.2308821e-38
-0.14658917 -0.0040806411 0.67887557 2.2401017e-38
-0.14613935 -0.0040856162 0.6797033 2.2493213e-38
-0.14549717 -0.0040852339 0.6796397 2.2401017e-38
-0.14486869 -0.0040852339 0.6796397 2.2493213e-38
-0.14424019 -0.0040852339 0.6796397 2.2585408e-38
-0.14361168 -0.0040852339 0.6796397 2.2677964e-38
-0.14298318 -0.0040852339 0.6796397 2.2677964e-38
-0.14240523 -0.0040866844 0.67988098 2.2493213e-38
-0.1417765 -0.0040866844 0.67988098 2.2493213e-38
-0.14114779 -0.0040866844 0.67988098 2.2585408e-38
-0.14054538 -0.0040874495 0.68000829 2.2584329e-38
-0.13991654 -0.0040874495 0.68000829 2.2400298e-38
-0.13928771 -0.0040874495 0.68000829 2.2400298e-38
-0.1387022 -0.0040887268 0.68022078 2.2584329e-38
-0.13807316 -0.0040887268 0.68022078 2.2676525e-38
-0.13768978 -0.0040960349 0.68143654 2.2677964e-38
-0.13695638 -0.0040929494 0.68092328 2.2677964e-38
-0.1363267 -0.0040929494 0.68092328 2.2677964e-38
-0.13569702 -0.0040929494 0.68092328 2.2677964e-38
-0.13506733 -0.0040929494 0.68092328 2.2585408e-38
-0.13443765 -0.0040929494 0.68092328 2.2585408e-38
-0.13402356 -0.0040995441 0.68202043 2.2493213e-38
-0.13338153 -0.0040991963 0.68196249 2.2401017e-38
-0.13275088 -0.0040991963 0.68196249 2.2585408e-38
-0.13212024 -0.0040991963 0.68196249 2.2954191e-38
-0.13134174 -0.0040945867 0.68119568 2.2954191e-38
-0.13071181 -0.0040945867 0.68119568 2.2861995e-38
-0.13008188 -0.0040945867 0.68119568 2.2861995e-38
-0.12945193 -0.0040945867 0.68119568 2.2861995e-38
-0.128822 -0.0040945867 0.68119568 2.2954191e-38
-0.12846768 -0.00410339 0.68266022 2.2861995e-38
-0.12783639 -0.00410339 0.68266022 2.2585408e-38
-0.1272051 -0.00410339 0.68266022 2.2493213e-38
-0.12679474 -0.0041105524 0.68385178 2.2585408e-38
-0.12616235 -0.0041105524 0.68385178 2.2677964e-38
-0.125577 -0.0041120932 0.68410814 2.2954191e-38
-0.12494438 -0.0041120932 0.68410814 2.3046389e-38
-0.12431175 -0.0041120932 0.68410814 2.2954194e-38
-0.12394807 -0.0041210358 0.68559581 2.2493216e-38
-0.12331407 -0.0041210358 0.68559581 2.2032239e-38
-0.12268006 -0.0041210358 0.68559581 2.1847846e-38
-0.12232172 -0.0041303434 0.68714434 2.1940042e-38
-0.12168628 -0.0041303434 0.68714434 2.2032239e-38
-0.12105084 -0.0041303434 0.68714434 2.2308824e-38
-0.12075013 -0.0041418248 0.68905443 2.2585411e-38
-0.12011293 -0.0041418248 0.68905443 2.2585411e-38
-0.11977445 -0.0041521806 0.69077724 2.2861639e-38
-0.11913565 -0.0041521806 0.69077724 2.2770523e-38
-0.11849685 -0.0041521806 0.69077724 2.2493578e-38
-0.11866318 -0.0041805455 0.69549614 2.1295395e-38
-0.11802001 -0.0041805455 0.69549614 1.9543678e-38
-0.1200961 -0.0042773956 0.71160859 1.7516093e-38
-0.12778409 -0.0045762896 0.76133412 1.7977076e-38
-0.2682814 -0.0045165219 0.65120542 2.2774843e-38
-0.26767921 -0.0045165219 0.65120542 2.2682646e-38
-0.267077 -0.0045165219 0.65120542 2.2958154e-38
-0.26647481 -0.0045165219 0.65120542 2.3050349e-38
-0.2658726 -0.0045165219 0.65120542 2.323402e-38
-0.27010947 -0.0045989128 0.66308475 2.3049986e-38
-0.26949626 -0.0045989128 0.66308475 2.2680125e-38
-0.26888308 -0.0045989128 0.66308475 2.194256e-38
-0.26507533 -0.0045966818 0.66276312 2.1848918e-38
-0.26446244 -0.0045966818 0.66276312 2.1940395e-38
-0.26412421 -0.0046014669 0.66345304 2.1848918e-38
-0.26341495 -0.0045997957 0.66321206 2.1664528e-38
-0.26280165 -0.0045997957 0.66321206 2.1664528e-38
-0.26218835 -0.0045997957 0.66321206 2.1572333e-38
-0.26157504 -0.0045997957 0.66321206 2.1387941e-38
-0.26096174 -0.0045997957 0.66321206 2.148014e-38
-0.26071924 -0.0046063471 0.66415668 2.2033314e-38
-0.26010507 -0.0046063471 0.66415668 2.2033314e-38
-0.25953066 -0.004607053 0.66425848 2.1848562e-38
-0.25891638 -0.004607053 0.66425848 2.1572335e-38
-0.25830212 -0.004607053 0.66425848 2.1664531e-38
-0.25799596 -0.0046125622 0.66505277 2.1940759e-38
-0.25738096 -0.0046125622 0.66505277 2.1848562e-38
-0.25676596 -0.0046125622 0.66505277 2.1387944e-38
-0.2562739 -0.004614776 0.66537195 2.129539e-38
-0.25565857 -0.004614776 0.66537195 2.1572335e-38
-0.25504327 -0.004614776 0.66537195 2.1572335e-38
-0.25473145 -0.0046202801 0.66616559 2.1572335e-38
-0.25397211 -0.0046176752 0.66578996 2.1572335e-38
-0.25335643 -0.0046176752 0.66578996 2.148014e-38
-0.25274074 -0.0046176752 0.66578996 2.1480137e-38
-0.25207126 -0.0046166899 0.66564792 2.1755645e-38
-0.25145572 -0.0046166899 0.66564792 2.1663449e-38
-0.25084013 -0.0046166899 0.66564792 2.1755645e-38
-0.24993514 -0.0046113492 0.66487789 2.1755645e-38
-0.24932027 -0.0046113492 0.66487789 2.1755645e-38
-0.24870543 -0.0046113492 0.66487789 2.1663449e-38
-0.24809058 -0.0046113492 0.66487789 2.1295025e-38
-0.24747574 -0.0046113492 0.66487789 2.120283e-38
-0.2471782 -0.0046172766 0.6657325 2.1295025e-38
-0.24656257 -0.0046172766 0.6657325 2.1387223e-38
-0.24596539 -0.0046176235 0.66578251 2.1663452e-38
-0.24534972 -0.0046176235 0.66578251 2.1755648e-38
-0.24473403 -0.0046176235 0.66578251 2.1663452e-38
-0.2445641 -0.0046260548 0.66699821 2.1387225e-38
-0.24394728 -0.0046260548 0.66699821 2.1387225e-38
-0.24333049 -0.0046260548 0.66699821 2.1663452e-38
-0.24272421 -0.0046262559 0.66702718 2.1847846e-38
-0.24210739 -0.0046262559 0.66702718 2.1847846e-38
-0.24149054 -0.0046262559 0.66702718 2.1847846e-38
-0.2411579 -0.004631714 0.66781414 2.1755651e-38
-0.24038857 -0.0046287915 0.66739279 2.1755651e-38
-0.23977141 -0.0046287915 0.66739279 2.1940042e-38
-0.23915422 -0.0046287915 0.66739279 2.2032239e-38
-0.23853706 -0.0046287915 0.66739279 2.1847846e-38
-0.23791988 -0.0046287915 0.66739279 2.1755651e-38
-0.23745255 -0.0046317144 0.6678142 2.1755651e-38
-0.23683499 -0.0046317144 0.6678142 2.1847846e-38
-0.23621744 -0.0046317144 0.6678142 2.1940042e-38
-0.2358271 -0.004636182 0.66845834 2.1940042e-38
-0.23520896 -0.004636182 0.66845834 2.1847843e-38
-0.23471607 -0.0046386579 0.66881531 2.2032595e-38
-0.23384447 -0.0046336418 0.66809213 2.2216626e-38
-0.23322664 -0.0046336418 0.66809213 2.2032595e-38
-0.23260882 -0.0046336418 0.66809213 2.2032595e-38
-0.23199099 -0.0046336418 0.66809213 2.2032595e-38
-0.23137319 -0.0046336418 0.66809213 2.1848199e-38
-0.2309676 -0.0046379035 0.6687066 2.1755645e-38
-0.23024596 -0.0046358248 0.66840684 2.1848199e-38
-0.22962785 -0.0046358248 0.66840684 2.1848199e-38
-0.22900975 -0.0046358248 0.66840684 2.1848199e-38
-0.22839162 -0.0046358248 0.66840684 2.1848199e-38
-0.22777352 -0.0046358248 0.66840684 2.1940395e-38
-0.22779503 -0.0046488787 0.67028898 2.1848199e-38
-0.22689234 -0.0046430901 0.6694544 2.1940395e-38
-0.22627325 -0.0046430901 0.6694544 2.2216623e-38
-0.22565418 -0.0046430901 0.6694544 2.2308819e-38
-0.22503509 -0.0046430901 0.6694544 2.2216623e-38
-0.22441602 -0.0046430901 0.6694544 2.1940395e-38
-0.22395033 -0.0046462724 0.66991323 2.2032592e-38
-0.22333083 -0.0046462724 0.66991323 2.2216623e-38
-0.22271132 -0.0046462724 0.66991323 2.1940395e-38
-0.22213188 -0.0046471106 0.67003405 2.1755645e-38
-0.22151226 -0.0046471106 0.67003405 2.1663449e-38
-0.22089265 -0.0046471106 0.67003405 2.1848196e-38
-0.22027302 -0.0046471106 0.67003405 2.2032589e-38
-0.21965341 -0.0046471106 0.67003405 2.2032589e-38
-0.219072 -0.0046479213 0.67015094 2.1848196e-38
-0.21833505 -0.0046454268 0.66979128 2.157161e-38
-0.21771565 -0.0046454268 0.66979128 2.1018436e-38
-0.21709627 -0.0046454268 0.66979128 2.074185e-38
-0.21647687 -0.0046454268 0.66979128 2.0925884e-38
-0.21585749 -0.0046454268 0.66979128 2.1110276e-38
-0.21556655 -0.0046525155 0.67081338 2.1387223e-38
-0.21494623 -0.0046525155 0.67081338 2.1848199e-38
-0.21432588 -0.0046525155 0.67081338 2.1940395e-38
-0.21408422 -0.0046607596 0.67200202 2.2032592e-38
-0.2133704 -0.0046587428 0.67171121 2.1940395e-38
-0.21274924 -0.0046587428 0.67171121 2.1663449e-38
-0.21212807 -0.0046587428 0.67171121 2.1663449e-38
-0.21150692 -0.0046587428 0.67171121 2.1848199e-38
-0.21088573 -0.0046587428 0.67171121 2.1755645e-38
-0.2105051 -0.0046640718 0.67247957 2.1663449e-38
-0.20988321 -0.0046640718 0.67247957 2.1663449e-38
-0.20926134 -0.0046640718 0.67247957 2.1663449e-38
-0.20846421 -0.0046601538 0.6719147 2.1571254e-38
-0.20784286 -0.0046601538 0.6719147 2.1663805e-38
-0.20722149 -0.0046601538 0.6719147 2.1756001e-38
-0.20633093 -0.0046540811 0.6710391 2.1848196e-38
-0.20571038 -0.0046540811 0.6710391 2.1848196e-38
-0.20508984 -0.0046540811 0.6710391 2.1756001e-38
-0.20446929 -0.0046540811 0.6710391 2.1571254e-38
-0.20384875 -0.0046540811 0.6710391 2.1387223e-38
-0.20350127 -0.0046603344 0.67194074 2.1663449e-38
-0.20287989 -0.0046603344 0.67194074 2.2032592e-38
-0.20225851 -0.0046603344 0.67194074 2.2216623e-38
-0.20214713 -0.0046721217 0.67364025 2.1940395e-38
-0.20152417 -0.0046721217 0.67364025 2.1848199e-38
-0.20090124 -0.0046721217 0.67364025 2.1940395e-38
-0.20029227 -0.0046724482 0.67368734 2.2308819e-38
-0.19966929 -0.0046724482 0.67368734 2.2125506e-38
-0.19904628 -0.0046724482 0.67368734 2.1941115e-38
-0.19857246 -0.0046759606 0.67419374 2.1941115e-38
-0.19739279 -0.004662822 0.67229939 2.1848918e-38
-0.19677109 -0.004662822 0.67229939 2.1848918e-38
-0.19614936 -0.004662822 0.67229939 2.1940039e-38
-0.19552767 -0.004662822 0.67229939 2.1847843e-38
-0.19490595 -0.004662822 0.67229939 2.1755648e-38
-0.19429097 -0.0046629831 0.67232263 2.1847843e-38
-0.19348772 -0.0046586134 0.67169255 2.1940042e-38
-0.19286658 -0.0046586134 0.67169255 2.1940042e-38
-0.19224542 -0.0046586134 0.67169255 2.1940042e-38
-0.19162428 -0.0046586134 0.67169255 2.1755651e-38
-0.19100313 -0.0046586134 0.67169255 2.1570901e-38
-0.19070114 -0.0046664225 0.67281854 2.1571256e-38
-0.19007894 -0.0046664225 0.67281854 2.1663452e-38
-0.18945676 -0.0046664225 0.67281854 2.1940039e-38
-0.18883458 -0.0046664225 0.67281854 2.1755648e-38
-0.18821238 -0.0046664225 0.67281854 2.1387225e-38
-0.18779637 -0.0046715513 0.673558 2.1387225e-38
-0.18705626 -0.0046686255 0.67313617 2.1663452e-38
-0.18643379 -0.0046686255 0.67313617 2.1847843e-38
-0.1858113 -0.0046686255 0.67313617 2.1847843e-38
-0.18518883 -0.0046686255 0.67313617 2.2031156e-38
-0.18456633 -0.0046686255 0.67313617 2.193896e-38
-0.18428676 -0.0046773287 0.67439103 2.1477985e-38
-0.18359548 -0.0046756067 0.67414272 2.1109562e-38
-0.18297209 -0.0046756067 0.67414272 2.1108483e-38
-0.18234865 -0.0046756067 0.67414272 1.6775289e-38
-0.18172525 -0.0046756067 0.67414272 1.1520138e-38
-0.18110183 -0.0046756067 0.67414272 1.1704529e-38
-0.18050569 -0.0046763131 0.67424458 1.8803592e-38
-0.17988217 -0.0046763131 0.67424458 2.2491418e-38
-0.17925867 -0.0046763131 0.67424458 2.1846048e-38
-0.17863517 -0.0046763131 0.67424458 2.2122635e-38
-0.17801166 -0.0046763131 0.67424458 2.203044e-38
-0.17748079 -0.0046787555 0.67459673 2.1938963e-38
-0.17682344 -0.0046778684 0.67446882 2.1938963e-38
-0.1761997 -0.0046778684 0.67446882 2.212371e-38
-0.175576 -0.0046778684 0.67446882 2.2308103e-38
-0.17495227 -0.0046778684 0.67446882 2.2032595e-38
-0.17432857 -0.0046778684 0.67446882 2.1847843e-38
-0.17395183 -0.00468452 0.67542785 2.1847843e-38
-0.17332724 -0.00468452 0.67542785 2.2032595e-38
-0.17270263 -0.00468452 0.67542785 2.2216626e-38
-0.17221572 -0.0046882676 0.67596823 2.2216626e-38
-0.1715906 -0.0046882676 0.67596823 2.2032595e-38
-0.17096551 -0.0046882676 0.67596823 2.2032595e-38
-0.17044465 -0.0046911375 0.67638201 2.2032595e-38
